ply
format ascii 1.0
comment VCGLIB generated
element vertex 674
property float x
property float y
property float z
property float nx
property float ny
property float nz
property uchar red
property uchar green
property uchar blue
element face 0
property list uchar int vertex_indices
end_header
0.00932373 0.070199 -0.00706925 0.0536011 0.928463 0.367536 144 133 58
0.0111638 0.0445909 0.0153246 -0.762147 -0.186436 0.619978 115 45 33
0.026146 -0.0272607 0.0237045 0.38129 -0.0276352 0.924042 88 53 88
0.0100173 0.0127817 0.0141833 -0.475302 0.0702838 0.877011 121 46 32
0.00676988 0.0399828 0.0145116 -0.537706 0.573204 0.618311 121 50 35
-0.000170652 0.0604318 0.010531 0.655984 -0.749085 0.092506 119 99 52
0.0146142 0.0746942 -0.0215362 0.296354 0.765815 0.570703 73 77 42
-0.0172708 -0.0675834 -0.0011753 0.324549 0.541692 0.775395 120 115 54
0.00385297 0.00603833 0.005752 -0.590798 -0.551989 0.588444 88 54 39
-0.0317122 0.0320171 -0.0127728 -0.625366 -0.700011 0.344821 154 142 60
-0.0117653 0.0450773 0.00176798 -0.107641 0.617207 0.779403 98 88 41
-0.00325748 -0.0406259 0.000905875 -0.274914 -0.192471 0.942007 173 157 60
0.00760374 0.0331304 0.0179142 -0.545652 0.175661 0.819395 121 48 34
-0.00654299 0.0150236 0.00145332 -0.766346 0.25593 0.589248 124 117 54
-0.0159398 -0.0266959 -0.0111807 -0.473212 0.670866 0.570972 176 153 60
-0.0119374 0.00494947 -0.00433027 -0.271323 -0.470703 0.839537 160 153 62
-0.0120139 -0.0249816 -0.00765314 -0.365052 0.904944 0.218664 171 156 61
0.00612148 0.0715516 -0.0113518 -0.153713 0.828952 0.537784 141 133 58
0.00719468 0.0301973 0.0176442 -0.341023 -0.124345 0.931795 118 47 34
-0.0247879 0.00288311 -0.00980248 -0.443083 -0.551619 0.706678 173 155 63
0.0331971 -0.0168214 0.0176475 0.16613 0.269127 0.948668 94 46 60
0.0114007 0.0056901 0.0450715 -0.286474 0.31207 0.905839 108 42 31
-0.0238374 -0.0265745 -0.0190271 -0.768442 0.614193 0.179619 146 118 55
0.00495548 0.0162144 0.0124791 -0.453185 -0.13448 0.881214 101 51 35
0.0284501 0.0456587 0.00843956 0.367141 0.875191 0.315038 37 26 25
0.00502633 0.047956 0.0120466 -0.498114 0.0756621 0.863804 109 52 36
0.00176522 0.0590555 0.0376818 -0.94984 0.228646 0.213368 109 45 33
-0.0177336 0.0423575 0.00192245 -0.358362 -0.0616119 0.931547 104 97 46
0.0284332 -0.0249941 0.0227007 0.17941 0.214834 0.96003 81 55 98
0.00352881 -0.0529732 -0.0047497 -0.203066 -0.407349 0.890411 162 153 60
-0.0194535 0.0196998 -0.0185342 0.0842576 0.178028 0.980411 162 148 60
-0.0197893 -0.0342022 -0.00521572 -0.433284 -0.117472 0.893569 86 78 40
-0.022393 -0.0342128 -0.00696769 -0.737647 0.257873 0.624002 83 75 37
0.0200016 -0.0317733 0.0302055 0.467334 0.157999 0.869848 106 45 31
0.00271568 0.0259651 0.0149316 -0.316069 0.219334 0.923035 93 56 40
0.00290118 0.0122241 0.00953846 -0.582545 -0.401442 0.706743 97 61 39
-0.025266 0.0467924 -0.0129757 0.484193 -0.858543 0.168707 112 102 47
0.00769616 0.00236807 0.00878566 -0.317539 0.0404953 0.94738 111 47 34
0.000249428 0.0190593 0.0117292 -0.233856 -0.58217 0.778711 111 90 47
0.0174233 0.0358816 0.0177055 -0.034335 -0.039052 0.998647 111 43 30
-0.00170354 -0.0392122 0.00166466 -0.247909 -0.0978403 0.96383 155 140 53
0.00389589 0.0193757 0.0126146 -0.275736 -0.37588 0.884694 97 53 36
-0.0158702 -0.0170586 -0.0271612 -0.955703 0.0592419 0.288308 171 149 63
-0.0112889 -0.0524571 -0.0121986 -0.433039 -0.726802 0.533138 176 158 63
-0.0113127 0.0092206 -0.00146172 -0.200041 -0.27129 0.94148 132 127 56
-0.00846156 -0.0220549 -0.0175889 0.58097 0.592779 0.557752 159 150 62
-0.0237303 -0.0518031 -0.0149357 -0.434874 -0.506133 0.744791 133 114 53
0.00969973 0.0087276 0.0382862 0.607277 -0.778218 0.159975 114 43 31
1.63481e-05 -0.0960102 -0.038378 -0.651745 -0.561197 0.510183 92 92 50
0.00863003 0.0718694 -0.0115752 -0.0232005 0.962302 0.270992 133 126 57
-0.01893 0.0189598 -0.0180293 0.018054 0.482469 0.875727 156 143 60
-0.0072548 0.0545763 -0.00798415 -0.579943 0.715692 0.389167 142 131 58
0.00728002 0.0113635 0.0123436 -0.622557 -0.123336 0.772794 112 48 35
0.0349641 -0.0469925 0.0154894 0.488884 -0.286345 0.824014 105 44 32
-9.3482e-05 0.0688677 -0.0106795 -0.170799 0.528591 0.831516 147 133 57
0.0278516 0.0401532 0.0142918 -0.0734517 0.629804 0.773273 38 26 24
0.00126929 -0.0517411 -0.0043941 -0.163995 -0.420177 0.8925 169 154 60
-0.0296148 0.000602262 -0.0134846 0.0325295 -0.680094 0.732403 156 133 62
-0.00294082 0.00505665 -0.000422985 -0.286528 -0.396881 0.872002 70 77 48
-0.00779028 0.0728638 -0.0172898 -0.308498 0.726809 0.613659 98 96 46
0.0121879 -2.88277e-05 0.00809323 0.626502 -0.27524 0.729204 115 45 31
-0.0188063 -0.0655282 -0.00263811 0.0412773 0.817596 0.57431 122 112 55
-0.022837 0.0105915 -0.00403202 -0.120268 -0.0766691 0.989776 163 145 55
0.00594996 -0.09133 -0.0270693 -0.861764 -0.362226 0.355184 130 123 50
-0.0270374 -0.0491597 -0.0155746 -0.620466 -0.549644 0.559387 132 110 54
0.0209113 0.0363055 0.0190598 -0.196732 0.12514 0.972438 108 42 31
0.014139 -0.0061924 0.0421615 0.21113 -0.488989 0.846353 37 63 128
0.0141423 -0.00945133 0.0405416 -0.00342304 -0.374205 0.92734 37 66 151
0.026066 0.0154305 0.0184542 -0.282413 -0.0412172 0.958407 106 42 32
0.000338578 0.0239653 0.014048 -0.592198 0.000188762 0.805792 108 83 45
-0.0248535 0.0332515 -0.00845197 -0.202703 -0.705115 0.679503 168 151 63
0.00696651 -0.00323419 0.0221643 0.873408 -0.450547 0.184843 116 46 33
-0.0316333 0.0368506 -0.00737702 -0.532692 -0.241178 0.811217 149 139 59
-0.00127056 -0.0536427 -0.00480492 0.0908341 0.0336865 0.995296 164 152 59
-0.0249251 0.0173114 -0.00919724 0.233644 0.866048 0.442009 170 156 62
-0.00559584 -0.035746 0.00104218 -0.380424 0.09673 0.919739 79 76 38
0.00359147 0.0507606 0.00576793 -0.720038 0.272769 0.638077 101 64 41
-0.0230029 -0.0315 -0.0112884 -0.861505 0.308246 0.403476 140 117 53
0.00926313 0.0438424 0.0136195 -0.469209 0.122676 0.874525 119 47 35
-0.000915788 0.0445139 0.00432499 -0.597499 0.438935 0.671067 89 84 41
-0.0119702 0.00156427 -0.0060857 -0.197305 -0.396017 0.896795 175 160 62
-0.0257435 0.0164515 -0.00685516 0.0289041 0.831012 0.555504 170 156 64
0.0071556 -0.0318302 0.00461776 -0.111256 -0.0977548 0.988972 80 45 33
0.0135446 0.0082748 0.0423109 0.606808 0.733833 0.305406 108 42 31
-0.0243928 -0.0257333 -0.0220637 -0.776446 0.61519 0.136651 138 113 55
-0.0184389 0.0631295 -0.0448828 -0.891849 -0.283126 0.352767 176 158 65
-0.00153017 0.00321648 -0.000913729 -0.222217 -0.54987 0.805147 58 63 45
-0.0298825 -0.0399335 -0.0222099 -0.981587 0.14763 0.121209 124 108 48
0.00547372 -0.0210369 0.0081921 -0.851509 -0.463097 0.245914 90 47 33
0.0162421 -0.0403567 0.00343583 -0.12319 -0.571044 0.811624 113 48 35
-0.0121443 -0.0247098 -0.00963602 -0.255388 0.88949 0.378925 178 157 62
0.0112827 -0.00902821 0.0402781 -0.265745 -0.587195 0.76458 38 64 130
-0.0191718 0.0672076 -0.0398255 -0.817279 -0.415685 0.399076 146 136 61
0.00865953 0.0299806 0.0177792 -0.238469 -0.222881 0.945228 120 47 32
-0.00213295 0.0139372 0.00671962 -0.362062 -0.590607 0.721176 116 108 52
0.00226839 -0.02696 0.0030271 -0.342561 0.642066 0.685859 46 43 42
0.00828552 -0.087324 -0.0224386 -0.529569 0.0452936 0.847057 145 132 55
0.0182497 0.0186006 0.0202798 0.638979 -0.135147 0.757259 113 42 30
0.00698375 0.025435 0.0158128 -0.114041 -0.474117 0.873045 122 48 34
0.0078356 0.0740163 -0.0181522 0.39872 0.456072 0.795626 86 90 45
-0.0229631 -0.052823 -0.0154366 -0.286213 -0.580956 0.761953 138 115 53
-0.00921696 0.0475624 -0.00272807 -0.157067 0.82254 0.546587 111 103 47
0.0289956 0.044523 0.0108563 0.472214 0.718232 0.511035 26 22 22
0.000868418 0.0714746 -0.0124103 0.0535849 0.666312 0.743745 150 138 58
-0.017095 0.0415046 0.00192245 -0.43591 -0.119573 0.892011 114 105 47
-0.00865403 0.0722171 -0.0174295 -0.437811 0.632108 0.639344 111 106 52
0.0161181 -0.057709 0.0328765 -0.523548 0.102565 0.8458 94 42 32
-0.00617022 -0.0176122 -0.0226051 -0.846765 0.088264 0.524594 146 142 61
-0.0206802 -0.0594263 -0.0162135 -0.254282 0.692742 0.674869 134 110 53
0.00937303 0.000274542 0.0073389 0.0392088 -0.424828 0.904425 114 47 33
-0.0148289 -0.00815404 -0.0176765 -0.200982 -0.678979 0.706112 186 165 66
0.0245299 -0.0492452 -0.00228372 -0.890416 0.207427 0.405133 110 43 31
0.0232671 -0.0509872 -0.00403202 -0.586354 0.77879 0.22288 112 44 31
-0.00108237 0.0466265 0.00348744 -0.498367 0.224867 0.837296 85 81 40
0.00937623 -0.00161952 0.0429322 -0.403857 -0.282971 0.869958 90 43 37
-0.0288663 -0.0413747 -0.0156612 -0.865832 0.286374 0.410275 146 122 55
0.0300482 -0.0305606 0.0219632 0.191146 -0.107616 0.975644 107 43 36
0.0296849 -0.026666 0.0227007 0.180248 0.0155472 0.983498 102 49 68
-0.0117315 0.0598649 -0.016658 -0.876124 -0.284098 0.389482 150 140 59
0.00608358 0.0625166 0.0448343 -0.343154 -0.0898609 0.934971 103 42 30
0.0141943 0.0450618 0.0204801 -0.430216 -0.433172 0.792008 115 44 31
0.00335717 0.0787776 -0.0218678 0.0796916 0.955583 0.283742 16 18 20
0.0171373 -0.0100081 0.0403521 0.141071 -0.290374 0.946458 37 65 149
0.0279172 -0.0138841 0.0230365 0.695314 0.0451981 0.717283 41 58 131
-0.0104231 -0.0714324 -0.00516674 0.572377 -0.000389879 0.81999 142 138 58
0.0160014 0.0189833 0.0133559 0.281025 0.372838 0.884317 114 44 31
-0.0133698 -0.00174524 -0.00847912 -0.249542 -0.575112 0.779086 172 159 64
0.00601717 -0.0102826 0.037347 -0.396262 -0.104509 0.91217 89 46 41
0.0103122 -0.0174811 0.0344757 -0.235351 -0.783644 0.574901 41 65 125
-0.0174816 0.0665225 -0.0375759 -0.922925 -0.300591 0.240528 161 149 63
0.0126852 -0.0631202 0.0270147 -0.629276 -0.0211714 0.776894 101 89 42
0.0127818 0.0262768 0.017439 -0.216631 -0.442239 0.870342 117 45 33
0.0025123 -0.044771 0.000204125 -0.10724 -0.591084 0.799449 153 140 57
0.033531 -0.0102565 0.0177136 0.228769 -0.184917 0.955757 94 40 32
-0.000141862 -0.0658784 -0.000242765 -0.442573 0.0270697 0.896324 138 125 54
-0.0227128 0.0321701 -0.00831401 -0.396988 -0.621149 0.675702 156 143 59
-0.00739594 -0.0595224 -0.00836648 -0.776601 0.568901 0.270634 183 163 63
0.00850872 -0.0947718 -0.024519 -0.769235 -0.263056 0.582305 146 136 54
-0.00658992 -0.00881349 -0.0113268 0.0748531 -0.637276 0.766992 135 128 56
0.0163929 -0.0123199 0.0391809 0.252676 -0.490931 0.833752 36 67 144
-0.0217194 -0.045715 -0.00779044 -0.281683 -0.444925 0.850115 122 109 50
0.0268884 0.0232395 0.0177055 -0.298738 0.194999 0.934201 100 40 28
0.010602 0.0342804 0.0187932 -0.225731 0.256372 0.93985 120 47 33
-0.00695289 -0.0302711 -0.00161297 -0.194467 0.195683 0.961192 156 134 52
-0.0106589 0.0616949 -0.0138558 -0.604527 -0.26459 0.751358 144 134 58
-0.00606379 0.0623126 -0.0102874 -0.722435 0.14841 0.675324 132 122 55
0.00493694 0.0095552 0.00905736 -0.543295 -0.46301 0.700323 97 51 37
0.030714 0.0735726 -0.0320336 0.676173 0.488034 0.551917 27 32 29
0.0258983 -0.0355162 0.0225663 0.39993 -0.0636479 0.914333 104 41 31
0.0241273 0.0395745 0.015796 0.507134 0.568738 0.647574 100 41 32
-0.000762752 -0.016419 -0.0138278 -0.852 -0.302502 0.427305 56 56 45
-0.0245725 0.0312698 -0.0105822 -0.266696 -0.762325 0.589689 170 153 62
0.00100608 0.0647821 0.00658803 -0.564982 0.586535 0.580321 135 125 56
-0.0312041 0.00612456 -0.010216 0.289617 -0.572397 0.767127 145 132 59
-0.00577077 -0.0283007 -0.00182858 -0.334907 0.279109 0.899964 156 147 60
0.0161551 0.0408463 0.0193992 -0.0524877 -0.375442 0.925358 112 44 31
-0.0132653 -0.0622379 -0.0136616 -0.3233 0.856221 0.402943 164 144 60
0.00259995 0.00457403 0.00159007 -0.480446 -0.643515 0.595869 68 52 42
-0.0141018 0.0688941 -0.0197927 -0.63997 0.501531 0.582155 153 142 61
-0.010325 0.0471518 -0.00188056 -0.0685753 0.85315 0.517138 104 96 46
0.00355189 0.0265912 0.0150669 -0.334833 0.200942 0.920603 99 52 36
0.00284085 0.0559875 0.0134124 -0.902873 -0.422217 0.0809589 106 53 38
-0.00150867 -0.027034 0.000184685 -0.54965 0.513361 0.659049 44 52 45
0.0200346 -0.0386246 0.00688344 -0.670836 -0.41721 0.613118 108 44 33
-0.0273912 0.0364236 -0.00597328 -0.455368 -0.621969 0.63702 158 143 60
-0.023554 -0.0415072 -0.00716002 -0.406359 -0.130329 0.904371 151 132 59
0.0269172 0.010814 0.0181842 0.128074 -0.12616 0.983708 105 43 31
-0.0234001 -0.0309404 -0.0122833 -0.827367 0.254808 0.500537 142 120 54
0.0334117 -0.036644 0.020419 -0.121293 -0.0756475 0.98973 104 43 31
-0.00112355 0.0296833 0.0119283 -0.161243 -0.14017 0.97691 126 110 53
0.0111735 -0.0286498 0.0081921 -0.689059 -0.567826 0.450302 108 46 34
0.00504433 -0.0307636 0.0044817 -0.124119 -0.000866708 0.992267 62 41 36
-0.00627919 -0.027595 -0.00231863 -0.298548 0.370988 0.879339 157 148 60
-0.0247122 -0.0611616 -0.024846 -0.929058 -0.216296 0.300112 133 110 55
-0.0139364 -0.0182931 -0.0183707 -0.29241 0.360978 0.885546 181 161 62
0.00664754 0.0122082 0.0123436 -0.52725 -0.230708 0.817791 112 49 37
-0.0105647 0.0275427 0.00102374 -0.550492 -0.499165 0.669174 152 142 59
0.0173266 -0.0317414 0.0313231 0.507049 0.316945 0.801528 105 44 32
0.0169375 -0.058922 0.0035293 -0.663491 0.582289 0.469807 93 54 35
-0.0202023 -0.0618667 -0.0113641 0.316027 0.904733 0.285632 141 114 53
0.0112516 0.00768429 0.0443033 0.145816 0.117102 0.982357 109 43 31
-0.00887072 0.0369151 0.00829131 -0.3614 0.237428 0.901675 149 136 59
-0.0118302 -0.0414045 -0.00200024 -0.495527 -0.201787 0.844829 172 156 60
0.0124546 -0.0288359 0.0112064 -0.66776 -0.665 0.334472 113 48 34
-0.0131071 -0.00703666 -0.0148833 -0.312386 -0.822077 0.47603 180 165 66
0.00928963 0.0291389 0.0177792 -0.17644 -0.290763 0.940386 121 47 32
-0.0240127 -0.0275383 -0.0381677 -0.882497 0.470317 0.000137813 127 100 54
0.000758388 0.0510888 0.00500873 -0.511692 0.183261 0.839397 115 99 50
0.0312078 0.043736 0.00857617 0.508749 0.778684 0.367186 21 20 19
0.0258022 -0.08375 -0.0228908 0.263029 -0.65118 0.711885 119 112 46
-0.0218452 0.0578005 -0.0565053 -0.77748 -0.551968 0.301423 141 134 63
0.0130521 0.0326164 0.0198739 -0.0263809 -0.317261 0.947971 115 46 34
0.011447 -0.0323371 0.00550931 -0.356674 -0.362299 0.861117 98 47 32
0.0119299 0.0341807 0.019401 -0.325375 -0.0226303 0.945314 120 46 32
0.0212659 0.0112213 0.0190649 0.423156 0.212705 0.880736 109 42 31
-0.0086199 0.0425259 0.00288012 -0.0136505 0.434832 0.900408 98 93 44
-0.00106533 -0.0141941 -0.0141906 -0.897619 -0.12852 0.421619 56 59 44
-0.0177325 0.0209883 -0.0182559 -0.237272 -0.154037 0.959153 142 133 59
0.0257052 0.0783323 -0.0316519 0.330534 0.855182 0.399264 48 49 39
0.0166535 0.0368402 0.0181801 -0.003515 -0.126581 0.99195 113 44 30
-0.0250136 -0.0404523 -0.0562966 0.897205 -0.438859 0.049255 66 59 37
-0.029321 0.021689 -0.0133264 0.0704999 0.973432 0.217853 165 152 64
-0.0100303 -0.0349887 -0.00180698 -0.387194 0.325303 0.862704 83 80 39
-0.0253373 0.020234 -0.0170698 0.162325 0.656867 0.736326 173 158 63
0.0247116 0.0279594 0.0173661 -0.31398 -0.207351 0.926511 106 41 30
0.0067114 0.01048 0.0112502 -0.663879 -0.28344 0.692045 108 48 35
0.00998093 -0.0154954 0.0364357 -0.411294 -0.42053 0.808697 42 65 130
-0.000794891 -0.0684842 -0.00197879 -0.579793 -0.315615 0.751151 120 113 52
-0.0241681 0.0639539 -0.050272 -0.900612 -0.260303 0.348051 147 137 69
0.0195693 0.0416526 0.0188557 0.464981 0.0623576 0.883122 108 44 31
0.00450559 -0.000100528 0.00534326 -0.982497 -0.00732008 0.186136 85 50 36
0.0148918 -0.0104067 0.0400884 -0.0564186 -0.162178 0.985147 37 65 148
-0.0164382 0.0560331 -0.0388121 -0.968293 -0.247015 0.0373238 172 152 64
-0.000631432 -0.0544964 -0.00480492 0.124463 0.067339 0.989937 163 154 59
0.0073024 -0.00523556 0.0383307 -0.601101 -0.260545 0.755509 99 43 35
-0.0195924 0.037885 0.000398635 -0.143699 -0.113495 0.983092 149 137 56
0.00300946 0.0237746 0.015272 -0.175465 -0.0858449 0.980736 98 54 37
-0.0102582 0.0113431 -0.00118773 -0.278943 -0.0650465 0.958102 128 121 55
0.0284275 0.0785583 -0.032414 0.524575 0.735705 0.428438 42 44 38
0.0133582 -0.0451312 0.000321245 0.312107 -0.666559 0.67697 91 56 36
-0.00744635 0.0681606 -0.0130211 -0.594243 0.207524 0.777051 143 132 57
0.0280065 0.0216767 0.0181801 -0.252255 0.0821247 0.96417 88 38 30
0.0210732 -0.0515604 -0.00479793 -0.386622 0.907377 0.164895 113 47 34
-0.00745662 0.0214336 0.00283812 -0.874142 0.070049 0.480592 143 129 56
-0.0185257 0.0614653 -0.0455584 -0.855077 -0.178424 0.486835 172 153 66
0.0138496 -0.0617647 0.00201464 -0.57047 0.753698 0.326349 145 125 49
-0.00778572 -0.073175 -0.00699588 -0.00563411 -0.0945423 0.995505 144 131 53
-0.016426 0.0708004 -0.0245372 -0.961705 0.0908651 0.258588 110 110 52
-0.00388188 -0.048427 -0.00368672 0.0335963 -0.412171 0.910487 155 144 58
0.0264744 -0.0207478 0.023772 0.550213 -0.027913 0.834558 42 64 142
0.00720147 0.00345241 0.0385356 -0.971646 0.123824 0.201422 108 43 32
0.0191599 0.0387167 0.0185854 0.0940257 0.0393647 0.994791 106 43 30
0.0196175 -0.0845322 -0.0215557 0.314754 -0.474923 0.821814 126 121 49
0.0151273 0.0142663 0.018187 -0.883861 -0.263741 0.386303 115 44 31
-0.023731 -0.027963 -0.0366026 0.882132 -0.470902 0.00978114 131 104 54
-0.00615958 -0.0506421 -0.00507878 -0.221703 -0.413043 0.883314 167 156 61
-0.0316909 0.0176558 -0.0128786 -0.959981 0.0774091 0.269154 153 146 64
0.0152768 0.00220502 0.0452028 0.201673 0.134979 0.970108 106 42 33
-0.00864816 0.0249829 0.00102374 -0.79623 -0.160082 0.583431 156 142 59
0.00760909 0.00603658 0.00857526 -0.486689 -0.499827 0.716454 111 49 34
-0.011004 -0.0205297 -0.0162166 0.14922 0.693723 0.704614 172 157 64
0.00540077 -0.00945932 0.037347 -0.563431 -0.00605389 0.826141 100 45 35
0.00221674 0.0266879 0.014454 -0.415369 0.407597 0.813224 95 61 41
0.00532951 0.0602691 0.0436671 -0.459069 -0.275555 0.844586 114 46 33
-0.000597074 -0.0301845 0.00296791 -0.580484 0.20734 0.787432 43 51 45
0.00277023 -0.00407751 -0.00350639 -0.863972 -0.430149 0.261772 51 44 38
-0.00470179 0.0364933 0.00966277 -0.28743 0.19453 0.937839 137 125 55
-0.0143795 0.0603143 -0.0210026 -0.767107 -0.202214 0.608816 155 142 58
0.018472 -0.0556541 0.00296791 -0.712439 0.340915 0.613358 104 48 32
0.0126793 0.0126012 0.0154072 -0.38068 -0.246781 0.891169 116 45 31
0.0102561 0.000546072 0.0436461 -0.350649 -0.346075 0.870217 104 43 32
0.0170229 0.0309884 0.0187242 0.0757721 0.264534 0.961395 112 46 32
0.00272876 0.0422702 0.0113672 -0.251199 0.162625 0.954176 97 58 40
0.0339838 -0.047463 0.0158292 0.639588 -0.179231 0.747531 106 44 32
-0.0136599 0.0420431 0.00379446 -0.243578 0.343285 0.907097 110 103 45
-0.0185502 -0.0101211 -0.0222854 -0.718345 -0.524047 0.457554 178 155 63
0.0294726 0.0214597 0.0183152 -0.144758 0.139285 0.979615 59 31 26
-0.0120507 -6.43576e-05 -0.00671759 -0.221925 -0.417016 0.881389 169 158 62
0.0119103 -0.0589653 -0.00237557 -0.437919 0.506497 0.742757 175 154 59
-0.00416231 0.0732672 -0.0158569 -0.338925 0.870612 0.356603 105 98 46
-0.0163145 0.0352223 0.00102374 -0.392275 -0.162981 0.905294 153 142 59
-0.0156023 0.0263208 -0.00903333 -0.530431 -0.617267 0.581055 162 144 62
0.0288515 0.0151226 0.019198 -0.0700683 -0.172588 0.982499 89 39 30
-0.0158025 0.0524303 -0.0151079 -0.614332 0.725479 0.310285 174 153 60
0.00691519 -0.00158641 0.0413144 -0.736513 -0.363908 0.570193 107 44 31
-0.0176812 -0.0299594 -0.00466799 -0.195063 0.43971 0.876702 157 130 54
0.0296423 0.008914 0.0183192 -0.201333 0.0565611 0.977888 96 42 33
-0.000679801 -0.0721163 -0.00420995 -0.339943 -0.562819 0.753441 146 137 55
-0.00687092 0.0223134 0.0039482 -0.907178 -0.0134753 0.420531 146 130 58
0.00196484 -0.00114421 -0.00435453 -0.510034 -0.619459 0.596771 47 48 41
0.00733707 -0.084257 -0.0228071 -0.323064 -0.336398 0.884571 152 141 54
0.00199529 0.0608088 0.0355235 -0.761607 0.587847 0.272747 97 41 32
-0.024459 0.0245117 -0.0176622 -0.226997 -0.00506605 0.973882 173 157 62
-0.0288885 0.0083012 -0.00880984 -0.503383 -0.41262 0.759177 141 130 57
0.00358455 -0.0673298 -0.000457195 0.148098 -0.160381 0.975882 146 136 52
-0.0124069 -0.0616802 -0.00855925 -0.621618 0.734828 0.271327 171 151 60
0.0204351 -0.0169792 0.0318632 0.718987 -0.329118 0.612159 37 66 147
-0.0151161 0.0595571 -0.021653 -0.743158 -0.146231 0.652941 160 147 61
-0.0071388 0.00545252 -0.0018146 -0.331972 -0.28477 0.899278 130 130 58
0.0182657 -0.0571335 0.00283173 -0.594146 0.488314 0.639172 103 50 34
0.00907633 0.0619915 0.0446469 -0.127943 -0.147489 0.980754 108 44 30
-0.00333766 0.061753 -0.00651807 -0.772684 0.0372754 0.633695 139 129 57
-0.0192007 -0.00925229 -0.0222854 -0.705203 -0.540048 0.459386 179 156 65
0.00445659 0.0169339 0.0120003 -0.463836 -0.145927 0.87382 99 51 37
0.0206858 0.0420512 0.0180424 0.601345 0.266897 0.753093 109 44 31
-0.0195973 0.0264933 -0.0114426 -0.588812 -0.739538 0.326166 141 133 59
0.00856925 0.00562039 0.0333147 0.82591 -0.483394 0.290176 112 44 31
0.000934538 -0.00309786 -0.00710151 -0.194128 -0.626998 0.754445 46 51 45
0.00346434 -0.0131119 0.0299396 -0.934779 -0.238045 0.263672 110 47 33
-0.0177085 0.0459566 0.00122024 -0.0872152 0.330672 0.939707 104 92 44
-0.0291507 -0.0390101 -0.0297258 0.927829 -0.356326 0.110293 83 74 40
-0.0221967 0.0630488 -0.0490549 -0.657343 -0.357662 0.663309 158 143 65
-0.0209167 -0.0485303 -0.00941095 -0.484349 -0.676479 0.554781 138 122 56
0.0155871 -0.0242446 0.0312609 0.262062 0.167429 0.950416 62 60 117
0.00876253 -0.000799878 0.0429322 -0.327254 -0.39005 0.860677 99 43 34
-0.0183717 -0.000358308 -0.00938902 -0.339608 -0.623086 0.704579 184 169 65
0.0319119 -0.0432543 0.0192756 0.381927 -0.158276 0.910539 105 42 31
0.0116693 0.0725905 -0.0183806 0.0303232 0.813642 0.580575 106 104 51
0.00593215 0.0393556 0.0143761 -0.511436 0.55418 0.656748 120 51 35
-0.0258441 0.0470684 -0.00798371 -0.258534 0.846944 0.464592 106 95 45
-0.0206359 -0.0348361 -0.00535267 -0.423834 -0.0325294 0.905155 77 71 36
-0.00422958 0.051797 -0.00387601 -0.416619 0.176031 0.891876 144 134 60
-0.00849718 0.0279529 0.00470638 -0.854148 -0.427899 0.295521 154 141 60
0.00401113 0.00273615 0.0011016 -0.657544 -0.483363 0.577924 77 52 40
0.033257 0.0164052 0.0183152 0.215002 -0.142585 0.966149 25 23 21
-0.0323837 0.00412269 -0.00999448 0.320305 -0.488071 0.811906 145 129 59
-0.0125476 -0.04219 -0.0026267 -0.592847 -0.257755 0.762952 178 160 62
0.0246965 0.00676033 0.0181185 0.161019 0.161608 0.97363 108 44 31
0.0152461 0.0780186 -0.0243387 0.408097 0.178858 0.895247 33 36 28
-0.0193109 0.0490682 -0.00765252 0.0599892 0.925924 0.372915 140 125 53
0.00866373 -0.00385215 0.00499508 -0.959513 0.251136 0.127533 109 48 35
0.00461538 -0.0284374 0.00461776 -0.301961 0.121299 0.945572 70 44 39
-0.011948 -0.0604292 -0.0143839 -0.370354 0.561558 0.739926 166 154 61
0.000251928 0.0702734 -0.0110418 -0.0918287 0.555684 0.826306 149 136 58
-0.0132025 0.0586787 -0.0204922 -0.755434 -0.122343 0.643702 155 143 58
0.0329919 -0.0497728 0.0174549 0.72914 -0.126458 0.67258 103 42 31
0.00833109 0.0393803 0.0165546 -0.5817 0.16365 0.796771 120 48 35
0.00937223 0.0414756 0.0168251 -0.68231 0.538849 0.494059 121 47 34
0.00261706 0.068286 -0.00690442 -0.332744 0.90715 0.257604 134 124 55
-0.0253187 0.023868 -0.0178013 -0.296374 0.0311598 0.954564 172 157 64
0.0139612 -0.05823 -0.00112388 -0.664317 0.30748 0.681277 146 126 53
0.00258321 0.0522448 0.00479545 -0.424693 0.367797 0.827262 114 85 48
-0.0067502 0.0135381 0.00131658 -0.709314 -0.064602 0.701926 130 120 54
-0.00537916 0.0651152 -0.0110114 -0.500211 0.366345 0.784589 136 126 56
0.0108443 0.0601337 0.0519501 -0.75149 0.639292 0.163 106 42 33
0.00321461 0.0764145 -0.0174144 0.159479 0.623321 0.765531 43 44 31
0.00728926 -0.0966887 -0.0314554 -0.730715 -0.499456 0.465403 141 134 53
0.00299254 -0.062994 -0.0011602 -0.107092 0.730057 0.674943 164 156 59
-0.0257725 -0.0430706 -0.0609162 0.884546 -0.452737 0.112287 61 57 38
0.0346258 0.000582062 0.0177092 -0.19282 0.094122 0.97671 41 28 27
0.0240981 -0.0469029 -0.00214672 -0.855545 -0.405127 0.322358 106 43 31
-0.00856818 0.0741972 -0.019323 -0.206847 0.383085 0.900255 49 53 33
0.00125971 0.0316853 0.0128136 -0.348477 -0.0971621 0.932268 105 75 44
-0.00152056 -0.0152643 -0.0158364 -0.837506 -0.22012 0.500131 57 61 45
0.0302927 0.0365026 0.0166796 0.445114 0.294782 0.845563 20 19 18
-0.0230382 -0.00600327 -0.0209003 -0.400729 -0.774724 0.489101 168 151 63
-0.0173526 0.0267884 -0.00817606 -0.297547 -0.723671 0.622708 147 134 57
0.0282464 -0.0316566 0.0221643 0.172233 -0.244167 0.954316 108 43 34
-0.00922539 0.0535171 -0.0072652 -0.34253 0.741784 0.576567 143 133 59
-0.0161029 -0.0584287 -0.0151606 -0.129716 -0.0726385 0.988887 147 130 58
-0.00490768 0.0350166 0.00952687 -0.287455 0.194509 0.937836 135 126 55
0.00405531 -0.00238455 0.0359193 -0.905508 0.394248 0.156918 110 44 33
0.00722721 0.0570928 0.0477202 -0.848669 0.498044 0.17808 118 45 34
0.0124086 0.00287057 0.0112502 -0.467276 -0.44788 0.762271 116 44 33
-0.00610027 0.058651 -0.009564 -0.85792 0.125693 0.498172 132 125 55
0.00225597 0.0564901 0.00311962 -0.824347 -0.24488 0.510377 117 94 50
0.0211218 0.0132739 0.0182534 0.143541 0.276368 0.950272 110 42 29
0.0265876 0.043829 0.0129891 0.264469 0.392315 0.880991 57 30 27
0.00435464 0.00532012 0.00623628 -0.622479 -0.499453 0.60255 91 53 37
0.0313282 0.00492243 0.0181842 -0.089219 -0.112905 0.989592 85 39 28
0.00887293 0.0195983 0.0141128 -0.214734 0.0238205 0.976382 123 48 33
-0.00136608 0.012961 0.00623628 -0.477755 -0.548902 0.685899 107 98 47
0.0162962 -0.0478079 0.0350416 -0.912979 0.338207 0.22822 105 43 31
-0.0223216 -0.0466619 -0.00891549 -0.460803 -0.634717 0.620318 127 112 52
-0.0135822 0.0157404 -0.000696852 -0.459687 0.0975202 0.882711 140 129 55
-0.0303413 0.0193158 -0.0111045 -0.501633 0.304493 0.809721 164 152 63
-0.0223822 0.0179243 -0.014917 0.263415 0.896591 0.356002 175 156 62
-0.0250522 0.0100467 -0.00479793 -0.516391 -0.227567 0.825562 157 143 59
0.0122454 0.0702053 -0.00878971 0.215887 0.828143 0.517273 123 119 56
-0.000366902 0.0232168 0.0134359 -0.690276 -0.0319011 0.722843 118 96 47
-0.00381487 -0.0696727 -0.00532844 -0.208366 -0.17544 0.962187 116 113 53
0.00494294 -0.0548411 -0.00524115 -0.103379 -0.556563 0.824349 161 152 60
-0.0244336 -0.0615331 -0.0233213 -0.952677 -0.163613 0.256198 134 113 55
0.0329976 0.00617229 0.0184542 -0.11292 -0.132027 0.984793 47 30 27
-0.0102436 0.0490532 -0.00371504 -0.128839 0.574498 0.808302 129 119 52
0.00206655 0.0600827 0.03964 -0.95782 -0.0407637 0.284462 104 44 33
-0.0228471 -0.0636465 -0.00880475 -0.0993229 0.835908 0.539808 130 104 52
-0.0106247 0.00661566 -0.00257969 -0.295122 -0.445023 0.845493 139 136 60
0.00103967 -0.0639307 -0.000457195 -0.333341 0.599852 0.727366 165 148 60
0.0118316 -0.0146872 0.0380667 -0.309267 -0.437597 0.844312 39 67 146
0.0173852 -0.0798974 -0.0173768 0.065469 -0.718175 0.692776 129 122 50
0.00660658 -0.0695794 -0.00129664 -0.213816 -0.245448 0.945536 128 122 51
-0.00490646 0.0721629 -0.0139748 -0.302541 0.743612 0.596246 131 120 54
0.0145015 0.0117959 0.0164936 -0.763803 -0.165901 0.623764 117 45 32
0.0235165 0.00288685 0.0196063 0.456447 0.032726 0.889148 107 42 32
-0.0101602 -0.0574414 -0.0159724 -0.258252 -0.0304331 0.965598 172 160 64
-0.00367937 -0.0610643 -0.00366322 -0.532726 0.170306 0.828975 152 145 58
0.0242242 -0.0454919 0.000437275 -0.872163 -0.447678 0.197272 105 43 31
0.0157793 -0.055267 -0.00267182 -0.513693 0.773365 0.371518 101 70 42
-0.00774779 -0.0468234 -0.00297981 -0.173571 -0.460443 0.870555 172 160 62
0.0195026 -0.0259248 0.0301428 0.383489 -0.089627 0.919186 82 54 95
-0.00840857 -0.0407527 -0.000126965 -0.175203 -0.192946 0.965441 176 160 59
0.0165916 -0.0374918 0.00612851 -0.179187 -0.434084 0.882872 111 47 34
0.0298802 0.0458395 0.0066355 0.431082 0.824376 0.366841 28 22 22
-0.0134544 -0.023887 -0.0669296 -0.934291 0.355853 0.0216569 158 138 59
-0.000194532 0.02664 0.0122714 -0.399339 0.343375 0.850072 115 99 50
-0.0267916 -0.0453815 -0.0644774 -0.906435 0.421624 0.0246813 85 77 45
-0.0163305 -0.0388676 -0.00374303 -0.527828 -0.209349 0.823147 132 128 51
-0.00437703 -0.0671686 -0.00470026 -0.272895 -0.212835 0.938205 106 101 52
-0.0186625 0.0401222 0.00116061 -0.286174 -0.195668 0.937986 128 117 51
-0.0182695 -0.0608783 -0.0145749 0.213694 0.396093 0.892998 143 121 55
0.0364737 -0.0372239 0.0202164 0.210603 -0.204123 0.956023 70 36 31
-0.00493855 -0.0646667 -0.00407328 -0.338289 -0.054663 0.939453 143 127 52
0.0105352 -0.00807385 0.0407303 -0.347895 -0.59521 0.724358 42 60 112
-0.0212777 0.00171583 -0.00903016 -0.260275 -0.567237 0.781344 187 165 66
1.14081e-05 0.0444648 0.00882376 -0.795143 0.377211 0.474827 93 79 42
-0.0123469 -0.0264492 -0.00482996 -0.507735 0.56247 0.652558 174 155 60
0.014744 -0.0525723 0.0349698 -0.595668 0.0808471 0.799152 107 43 30
0.0286691 -0.0339492 0.0220302 0.0733992 -0.106566 0.991593 106 42 31
0.026856 0.0092193 0.0175741 0.0359887 -0.0462903 0.99828 108 44 31
-0.0209905 -0.0608048 -0.0133538 -0.00292323 0.942174 0.335111 131 109 52
0.00227271 0.0692878 -0.0104017 -0.228696 0.743017 0.628986 146 133 60
-0.0162306 0.058359 -0.0296489 -0.965203 -0.253516 0.0641239 162 149 63
-0.019976 -0.0639573 -0.00557678 -0.0704684 0.850387 0.521417 139 115 53
0.0116697 -0.0463954 4.81248e-05 0.17873 -0.706466 0.684808 114 90 46
-0.00165019 -0.0584751 -0.00374303 -0.170304 0.451406 0.875916 156 144 57
-0.028441 -0.0363795 -0.0279074 0.897669 -0.419063 0.136295 64 57 35
-0.0269603 0.00572596 -0.00880984 -0.6026 -0.478108 0.638972 149 136 60
0.00231211 -0.0656302 -0.000457195 0.00214451 -0.0426839 0.999086 155 143 58
0.00359482 -0.00355906 0.0367 -0.910687 0.12422 0.393978 115 45 32
0.00839538 0.00487075 0.0424247 -0.90347 -0.124683 0.410118 106 43 31
-0.0182205 -0.0253439 -0.0133138 -0.38421 0.61198 0.691276 169 147 58
0.00884193 -0.0271769 0.0066117 -0.614517 -0.479919 0.626136 90 44 32
-0.0316038 0.0351164 -0.0085078 -0.438835 -0.496939 0.748649 156 144 61
-0.00927022 0.0205222 0.000613125 -0.590632 0.23147 0.77303 139 130 59
0.0227154 0.0473268 0.0123731 0.638324 0.0914125 0.764321 107 44 32
0.0209569 0.0225166 0.0165546 -0.183936 0.0817651 0.979531 111 43 29
0.0155605 -0.0548923 -0.00414465 -0.517778 0.835654 0.183271 104 78 42
0.0171324 -0.0492844 0.040492 -0.748495 -0.415059 0.517186 105 42 31
-0.0144798 0.0497909 -0.00759685 -0.449888 0.741392 0.497934 168 153 62
-0.0305433 -0.0444653 -0.0170781 -0.966551 0.112603 0.230434 133 108 55
0.0127741 -0.054496 0.02443 0.902807 -0.426426 0.0556817 99 48 35
-0.00419709 0.0101281 0.00131658 -0.39321 -0.480813 0.783712 92 86 47
-0.0280197 0.0220631 -0.0177131 -0.141861 0.762009 0.631836 167 155 64
-0.0326536 0.0365991 -0.00950189 -0.902631 0.158336 0.400233 144 137 58
0.0232913 0.0330547 0.0195342 0.0910798 -0.182523 0.978974 107 41 31
-0.0153625 0.0689092 -0.0209528 -0.727589 0.381126 0.570401 148 140 58
0.0111388 0.0754519 -0.0202817 0.406031 0.314201 0.858147 60 62 38
-0.023163 -0.0560912 -0.019228 -0.471357 -0.548378 0.690727 132 111 51
0.019615 0.0779147 -0.0254628 0.125567 0.54203 0.830925 40 41 31
0.0012837 -0.0482962 -0.00264906 -0.214904 -0.517059 0.828533 156 149 61
0.00479789 0.0301558 0.0154726 -0.753035 -0.0401373 0.656755 109 49 33
-0.0206488 -0.0247742 -0.0370812 0.67655 -0.728385 0.108328 149 121 58
0.0117939 0.0745769 -0.0202817 0.282531 0.499822 0.818752 76 78 43
0.0300103 0.0295226 0.0185166 -0.105906 0.310761 0.94457 26 22 21
0.00478134 0.0354068 0.0158784 -0.430443 0.0457019 0.90146 111 49 35
-0.0258706 -0.052478 -0.0187241 -0.796846 -0.405519 0.447874 132 112 56
0.0158684 -0.0573357 0.000613415 -0.758612 0.424138 0.494585 101 70 39
0.0074382 -0.0253379 0.00709395 -0.748799 -0.43693 0.49839 87 45 34
0.0326638 0.0312816 0.0184482 -0.0261153 0.356197 0.934046 19 20 18
-0.0203945 -0.00603206 -0.0191029 -0.462669 -0.73414 0.496967 179 158 63
0.0118769 -0.0483474 -0.00155509 0.0011874 -0.626653 0.779297 125 107 48
-0.00550314 0.0169213 0.00416065 -0.968839 0.0950619 0.228725 129 119 54
-0.0241621 0.0472064 -0.0138415 0.453811 -0.882619 0.122637 116 107 50
-0.0107895 0.0311159 0.00373518 -0.806426 -0.373975 0.458061 148 138 58
-0.00845717 -0.0562148 -0.013196 -0.74961 -0.381689 0.540739 177 160 61
0.00719239 -0.0876329 -0.0241015 -0.764696 -0.0951262 0.637332 143 132 52
0.00923803 -0.00799522 0.0401463 -0.522986 -0.481284 0.703457 52 57 90
-0.000261982 0.0710368 -0.011544 -0.0116953 0.529757 0.848069 150 138 57
0.000262218 0.0574567 0.00249394 -0.57142 -0.356391 0.739232 136 124 58
-0.0120323 0.008456 -0.00208873 -0.325262 -0.406263 0.853906 140 133 57
-0.0322837 0.0228319 -0.0247374 -0.863587 -0.241983 0.442337 153 148 64
-0.0221967 0.0097362 -0.00403202 -0.125033 -0.167518 0.977908 158 141 59
0.00923153 -0.0145351 0.0368913 -0.463565 -0.295208 0.83544 46 62 114
-0.0263647 0.0417291 -0.000992233 -0.624992 0.0930292 0.775068 106 97 47
0.0136559 -0.0644594 0.02794 -0.629276 -0.0211714 0.776894 97 92 43
-0.00678121 -0.0323102 -0.000771216 -0.233061 0.355832 0.905023 108 98 44
0.0160381 0.0708557 -0.0103779 0.128756 0.8884 0.440644 86 86 46
-0.0305304 0.00350103 -0.011349 0.12564 -0.516712 0.84689 154 136 61
-0.010628 -0.058617 -0.0151089 -0.186549 0.346695 0.91924 173 158 62
0.0258264 0.0752694 -0.026073 0.485029 0.594146 0.641668 51 50 35
-0.00196206 0.0290556 0.0117927 -0.215099 -0.145232 0.965733 128 116 54
-0.00925923 -0.064172 -0.00497375 -0.276456 0.272348 0.921628 152 135 55
-0.0238958 -0.0568945 -0.0198704 -0.479323 -0.627002 0.614099 128 109 52
0.0195662 -0.0243385 0.0307373 0.216351 0.33243 0.917978 63 60 121
-0.0036561 0.00429052 -0.00105073 -0.310328 -0.432979 0.846301 93 95 51
-0.0109079 -0.0247635 -0.00603321 -0.368906 0.879878 0.299539 171 154 62
0.00355208 0.0373582 0.0134914 -0.664856 0.435283 0.607038 105 54 37
0.0276017 0.0753068 -0.0290442 0.688736 0.581914 0.432458 43 43 34
0.026544 0.0238388 0.0167543 -0.202347 0.0520613 0.977929 106 40 30
-0.0177064 -0.0334886 -0.00396035 -0.364354 -0.117911 0.923766 107 94 42
0.0063657 -0.0532543 -0.00398331 -0.0417351 -0.394738 0.917845 161 148 59
-0.00529123 0.0728264 -0.0149847 -0.352056 0.861384 0.366162 115 107 49
0.000823548 0.0199345 0.0128225 -0.200938 -0.550659 0.810184 106 79 43
0.0189922 -0.0422742 0.00357208 -0.460127 -0.63029 0.625315 111 45 32
-0.0034137 0.0658514 -0.0092319 -0.669069 0.598522 0.440588 138 131 58
-0.0194097 0.0231007 -0.0167402 -0.19844 -0.434062 0.878756 154 147 59
0.010289 0.0683353 -0.00359063 0.0630757 0.844292 0.532158 136 131 62
0.0249233 -0.0154747 0.0263739 0.811698 -0.104296 0.57469 35 63 141
-0.00981329 0.0176747 0.000827985 -0.0205668 -0.348243 0.937179 139 130 57
-0.0263891 0.0217138 -0.0180794 -0.103628 0.470719 0.876176 171 158 63
-0.0120985 0.0541602 -0.0105342 -0.409075 0.822281 0.395614 141 134 54
0.00661793 -0.0433311 0.00269555 -0.410294 -0.505225 0.759214 165 147 57
0.0155758 0.0727892 -0.0179603 0.0383652 0.886475 0.461183 97 96 49
-0.00339552 0.0328293 0.0109689 -0.376257 0.314286 0.871582 129 121 54
-0.0145375 0.0472956 -0.000817633 0.131594 0.871739 0.471968 122 106 46
0.0290287 0.00451421 0.0179142 0.108642 -0.0831553 0.990597 104 43 31
0.00400055 -0.000639678 -0.000639732 -0.874872 -0.0584226 0.480818 71 48 38
-0.00570595 -0.0165326 -0.0209404 -0.758164 -0.0729073 0.647976 133 130 58
0.00661395 0.0652804 0.0446469 -0.388257 0.429391 0.815401 90 38 29
0.0140768 -0.0110169 0.0399566 -0.129046 -0.239148 0.96237 38 66 151
-0.0133505 -0.0304704 -0.00376679 -0.127506 0.177161 0.975887 153 129 52
-0.0305003 -0.0408874 -0.0233633 -0.983852 0.120793 0.132075 125 108 52
0.0100921 -0.089745 -0.0219321 -0.148305 -0.0332038 0.988384 133 125 52
-0.00814799 0.0562877 -0.0119834 -0.600166 0.376087 0.705946 144 131 59
0.0114163 0.00429939 0.0102902 -0.476185 -0.526896 0.704009 116 46 32
0.0215276 0.0181406 0.0172342 0.160434 0.137928 0.977362 110 42 30
-0.0159434 0.0399146 0.00241055 -0.469924 -0.158427 0.868374 131 124 51
0.0149945 0.0336306 0.019198 0.282474 0.00319278 0.95927 112 44 31
0.0173664 0.0323373 0.0183845 0.205856 0.156876 0.965926 112 44 31
0.0232351 -0.0440964 -0.000540111 -0.362978 -0.894106 0.262338 106 43 32
0.00480487 -0.0216771 0.00516199 -0.893681 -0.356723 0.272181 86 47 34
0.00516079 0.0176862 0.0126146 -0.422447 -0.169295 0.890437 104 50 37
0.0317093 0.0274767 0.017091 0.352097 -0.0213399 0.93572 23 20 19
0.00511346 0.0639584 0.043931 -0.642543 0.220414 0.733864 93 39 28
-0.00179713 -0.0442682 -0.000692621 -0.261179 -0.523203 0.811199 155 146 58
-0.0174344 -0.00326152 -0.0115188 -0.323285 -0.716442 0.618221 193 167 66
-0.0104299 0.0730042 -0.0190932 -0.497891 0.293535 0.816052 73 73 41
-0.017376 0.0473317 0.000867255 0.0946092 0.616398 0.781731 118 102 48
-0.0155392 -0.0273789 -0.00770847 -0.393978 0.87976 0.26609 170 143 60
-0.0255842 -0.03114 -0.0292607 0.908137 -0.401896 0.11733 127 103 54
0.00906073 -0.0343748 0.00461776 -0.145911 -0.101308 0.984097 89 48 32
0.022525 -0.0544556 0.0356302 0.362918 -0.0254361 0.931474 96 40 30
0.0157563 -0.0592756 0.0067746 -0.75865 0.648173 0.0657433 96 58 37
-0.00100973 -0.0331432 0.00269555 -0.439916 -0.0953211 0.892966 42 44 37
0.011261 -0.000344698 0.00602448 -0.73289 0.577106 0.360307 118 46 32
0.000646878 -0.0562037 -0.00480492 0.122016 0.242235 0.962515 172 156 60
0.028421 0.0764361 -0.0309882 0.614681 0.557923 0.557574 40 43 35
-0.0250008 -0.0359182 -0.0123364 -0.717443 0.137889 0.682834 80 73 35
0.0248781 -0.0222574 0.025373 0.624719 -0.154735 0.765365 47 64 139
-0.0169179 -0.027186 -0.0108211 -0.216147 0.871917 0.439365 168 144 60
-0.0112036 0.0283959 0.00102374 -0.549585 -0.456209 0.699879 150 142 60
-0.0206274 -0.00737437 -0.0217763 -0.552883 -0.660191 0.508398 176 155 63
0.00373642 -0.0100884 0.0306672 -0.972358 -0.0529573 0.22741 118 48 33
0.0186738 -0.0442394 0.0364826 -0.597558 0.620722 0.507572 107 43 31
-0.014864 0.0739358 -0.0225772 -0.797522 0.414706 0.438154 42 45 30
0.00290903 0.00573297 0.00367521 -0.603106 -0.69406 0.39312 78 54 41
-0.0142137 0.0635699 -0.0197032 -0.845396 -0.211298 0.490571 161 145 59
0.0124691 0.027619 0.0237091 0.261818 0.958722 0.110925 115 44 32
-0.0113261 0.0683082 -0.0159608 -0.502607 0.576104 0.644585 160 143 60
-0.0110108 0.0212218 -0.000992233 -0.758299 0.452762 0.46903 144 134 59
-0.0108206 0.0584544 -0.0151424 -0.768716 0.00650506 0.639557 145 133 59
-0.000268292 0.0164573 0.00953846 -0.375157 -0.562227 0.736992 117 103 50
-0.0100921 0.0369003 0.00718956 -0.611291 0.140766 0.778787 155 142 61
0.0289092 0.0258388 0.0176366 -0.135297 0.000754882 0.990805 58 30 27
-0.00598599 0.0209844 0.005404 -0.836715 -0.383109 0.391325 135 125 55
-0.0155366 0.0518994 -0.0135968 -0.63701 0.681606 0.360044 173 155 61
0.00389078 0.0387154 0.0131489 -0.590051 0.433073 0.681386 103 53 37
-0.0199681 -0.0532661 -0.0151606 -0.343455 -0.505589 0.791466 146 128 55
-0.0136902 0.0628057 -0.019195 -0.865714 -0.179362 0.4673 160 145 60
-0.0241363 -0.0583513 -0.0225364 -0.802602 -0.364844 0.471931 132 111 53
0.00945803 -0.000710208 0.0159593 0.853047 -0.505323 0.130232 116 46 33
0.003791 -0.065849 -0.000320885 0.17067 -0.0671701 0.983036 151 140 56
0.0326804 0.0260306 0.0180424 0.352302 0.188187 0.916771 19 20 18
-0.0105783 0.0633129 -0.0132126 -0.550938 -0.0205125 0.834294 145 134 57
0.00560319 -0.0198332 0.0131169 -0.753848 -0.606587 0.252519 94 47 32
-0.011797 0.0670039 -0.0150893 -0.483307 0.426413 0.764582 151 138 57
-0.0184801 0.0329643 -0.00085517 -0.485082 -0.523914 0.700149 157 145 60
0.00854672 -0.0152832 0.0363035 -0.50686 -0.376421 0.7755 51 57 94
0.0204406 -0.0434726 0.0403764 -0.780483 0.611252 0.131214 104 43 30
0.0165412 0.0297597 0.0195359 -0.220004 0.113562 0.968866 114 44 32
-0.0134431 0.0676765 -0.0172527 -0.650749 0.490363 0.579716 159 143 58
0.0187792 -0.0562321 0.0346452 -0.544717 -0.227398 0.807201 94 40 29
0.0173964 -0.0537828 -0.00436231 -0.474645 0.864236 0.166756 93 54 34
-0.00356505 0.0542622 -0.00211953 -0.658732 -0.31262 0.684355 143 130 55
-0.0257401 0.020847 -0.0180794 0.0319465 0.411103 0.911029 171 158 63
-0.00691648 0.0499951 -0.00379524 -0.178573 0.343033 0.922193 144 131 58
0.0215473 -0.0199476 0.0294209 0.659138 -0.300296 0.689463 38 65 144
0.00177967 0.0171188 0.0107701 -0.308327 -0.431935 0.847565 102 73 43
-0.00121454 0.0333577 0.0117199 -0.339712 0.24097 0.909136 126 113 53
-0.013554 -0.0512182 -0.0118391 -0.178695 -0.777199 0.603349 179 161 63
-0.0205105 0.000722232 -0.00952684 -0.255333 -0.558258 0.789401 187 166 66
-0.0226291 0.0120818 -0.00389484 -0.0891872 0.199887 0.975751 166 150 61
-0.00589029 0.0601566 -0.00942539 -0.841913 0.0751432 0.534356 130 120 52
0.0101892 0.0247582 0.0151305 -0.0549789 -0.436395 0.898074 120 46 34
0.00863183 -0.0320486 0.00475381 -0.181406 -0.172871 0.968095 83 45 34
-0.0266172 -0.0444301 -0.0116701 -0.658086 -0.485241 0.575729 128 107 51
0.00598229 -0.0424821 0.00269555 -0.432498 -0.379684 0.817793 168 148 58
-0.0148076 0.0481078 -0.00475957 -0.197443 0.919038 0.341152 147 128 52
-0.0164404 0.0667397 -0.0212329 -0.886355 0.119787 0.447243 167 147 62
0.0143312 0.0017253 0.0455204 -0.0749483 0.0297237 0.996744 106 42 31
-0.0229725 0.0467389 -0.0072104 -0.203785 0.458522 0.865002 105 92 44
-0.0289282 0.0285715 -0.0162879 -0.226824 -0.740414 0.632723 168 156 63
0.0159571 -0.0366444 0.00612851 -0.232471 -0.334809 0.913159 112 47 33
0.0311533 -0.0160465 0.0194056 0.697152 0.16101 0.698609 68 53 107
-0.0275605 -0.0484571 -0.0160754 -0.584555 -0.617034 0.526844 132 112 56
-0.0161071 0.0367092 0.00116061 -0.482741 -0.19116 0.854646 152 140 59
0.00533877 -0.0329412 0.00482934 -0.115449 -0.0505206 0.992028 54 40 32
-0.0315827 0.0217231 -0.0221865 -0.980161 0.0629266 0.187946 156 147 64
0.00383508 0.0630361 0.0164793 -0.108692 0.970251 0.216332 99 61 38
0.00472138 -0.0878969 -0.026419 -0.632212 -0.351557 0.690447 131 127 52
-0.00108422 -0.0347721 0.00207339 -0.25496 -0.14884 0.955428 56 55 37
0.00509441 0.0387284 0.0142406 -0.569682 0.481589 0.665984 112 51 36
0.00583826 -0.0215969 0.00915346 -0.79874 -0.55108 0.241507 91 46 34
0.0252669 -0.0141601 0.0260416 0.813756 -0.0373426 0.580006 36 63 140
-0.0197725 -0.0395185 -0.00562653 -0.339059 -0.0289359 0.94032 148 136 55
0.00629858 0.0662251 0.0414759 -0.741591 0.628938 0.233407 85 37 28
-0.00814898 0.0155878 -0.000639732 -0.403069 0.278133 0.871882 139 127 53
-0.0268052 0.00383023 -0.0104382 -0.481584 -0.613056 0.626289 159 143 62
0.0154483 0.0466439 0.0221656 0.186534 -0.381679 0.905277 113 44 31
-0.0156044 -0.0253455 -0.0115413 -0.612275 0.480977 0.627519 179 154 61
0.00604396 0.0337204 0.0158784 -0.554679 0.134505 0.821121 119 48 34
-0.00362103 0.0447258 0.00307682 -0.28343 0.271757 0.919682 90 82 39
-0.0183715 0.0099309 -0.00362045 -0.0444194 -0.277942 0.95957 151 140 58
-0.0103286 0.0321056 0.00532781 -0.792921 -0.303072 0.528605 147 137 57
0.00180861 -0.0233204 -0.0156103 0.350563 -0.936507 0.00773578 45 49 44
-0.00114225 -0.0416944 0.00104218 -0.141619 -0.239022 0.960631 170 150 59
0.00208949 -0.0134397 -0.00878358 -0.643075 0.151551 0.750658 82 60 39
0.0107381 -0.0627697 -0.000829114 -0.784973 -0.0829004 0.613958 163 146 56
-0.0219026 -0.00580896 -0.0192419 -0.400171 -0.79049 0.463668 175 153 63
-0.00295435 0.0166422 0.00830343 -0.484052 -0.36733 0.794205 129 116 52
-0.0233479 -0.0352748 -0.0562626 -0.985793 0.163456 0.0386485 114 91 57
0.0141013 0.0754684 -0.0220495 0.450477 0.600054 0.661064 62 64 39
-0.0173998 0.0726607 -0.0429616 -0.779832 0.625957 0.00632676 21 24 24
-0.018378 0.0610173 -0.0434302 -0.947611 -0.230021 0.221638 170 154 64
-0.0226573 0.0184065 -0.0164267 0.349525 0.519107 0.779974 178 159 63
0.0230642 0.0486937 0.0120283 0.661224 0.0722549 0.746701 103 43 31
-0.0250501 -0.0304573 -0.0144185 -0.76292 0.283161 0.581182 145 118 53
0.00446375 -0.024383 2.72248e-05 -0.530437 0.397664 0.748666 76 47 36
0.0337858 -0.0232947 0.0214936 -0.129199 0.471447 0.872379 95 42 45
0.0101822 0.0786264 -0.0206528 0.268121 0.6124 0.743692 23 26 24
0.0227092 0.0201106 0.0170295 -0.0785612 0.0398724 0.996112 106 43 29
0.00737941 -0.0596587 -0.0103245 0.231291 0.288949 0.928985 159 148 59
-0.0276987 0.0401123 -0.00273916 -0.884438 -0.0870968 0.458457 117 110 51
0.00388148 -0.00568674 0.0370235 -0.527612 -0.453106 0.718555 114 46 33
-0.00893602 -0.000641338 -0.0069367 -0.121099 -0.616562 0.777938 165 151 60
-0.0137134 -0.0353326 -0.00270644 -0.293801 0.325742 0.898651 89 79 38
0.00694893 -0.0682624 -0.00164808 -0.0344135 0.158041 0.986833 131 122 51
0.0333319 0.0127537 0.0185196 -0.189401 0.183216 0.964655 28 25 23
-0.00303608 -0.0477938 -0.00354992 -0.0122852 -0.488951 0.872225 157 146 58
-0.0237221 -0.0359356 -0.00872436 -0.859031 0.386589 0.335582 81 73 37
0.00935993 0.0598394 0.0449661 -0.671588 0.554568 0.491349 116 46 33
-0.0272658 0.0264687 -0.0178013 -0.201206 -0.412678 0.888377 169 157 62
0.0202816 0.0720111 -0.0180492 0.0239046 0.915812 0.400896 54 56 38
0.0215417 0.0354634 0.0190598 -0.133867 0.140415 0.981001 108 43 31
-0.0270819 0.0327143 -0.00922586 -0.0973059 -0.713352 0.694018 169 152 64
-0.0182884 0.0115503 -0.00299106 -0.363406 0.181048 0.91387 155 143 58
0.031005 0.000258152 0.0168288 -0.0373163 -0.0545193 0.997815 100 43 32
-0.00827032 -0.00667526 -0.0098315 -0.276773 -0.428968 0.859874 159 148 61
0.00909463 0.0158131 0.013842 -0.27969 -0.146597 0.948832 122 47 35
-0.00844618 0.00378549 -0.00356267 -0.41014 -0.462335 0.78615 148 146 62
0.00247755 -0.00850389 -0.00986182 -0.250619 -0.351164 0.90215 53 48 40
-0.0112803 -0.00105747 -0.00721198 -0.143891 -0.548139 0.823917 172 157 63
-0.0233567 0.03303 -0.00831401 -0.328705 -0.679794 0.655617 163 146 61
-0.0156106 -0.0380829 -0.0031165 -0.57757 -0.0735213 0.813024 112 109 47
-0.0318428 0.0204411 -0.0248772 -0.962966 -0.140546 0.230094 152 149 65
0.0283387 0.0282711 0.0182462 -0.135889 0.0146209 0.990616 55 30 26
0.000637728 -0.0860483 -0.0251682 -0.335854 -0.810594 0.479729 136 131 54
0.0294385 -0.0349325 0.0215608 0.175528 -0.302222 0.936938 106 42 30
-0.0123574 -0.0354017 -0.00208022 -0.197188 0.323363 0.925502 89 79 39
0.0151985 0.0125478 0.0171041 -0.816394 -0.183756 0.54748 116 45 32
0.00160035 -0.0221844 -0.00206621 -0.221536 0.852439 0.473571 54 47 43
-0.026763 0.0423538 -0.0019742 -0.787131 0.351126 0.507085 103 93 45
-0.0213426 -0.0409394 -0.00639367 -0.370576 -0.13639 0.918733 170 149 58
-0.0151494 0.0143451 -0.00146172 -0.366256 -0.030363 0.930019 146 131 57
-0.0103895 -0.0104722 -0.0179034 -0.363557 -0.619098 0.696092 173 160 63
0.00876633 0.0024403 0.0445463 -0.674864 -0.0181641 0.737719 108 42 32
0.00744518 0.00114533 0.0411255 -0.896338 0.348848 0.273648 107 44 32
0.0286846 0.0388064 0.0157257 0.0935609 0.693055 0.714787 26 22 22
0.0119332 0.0436331 0.014847 -0.667528 0.392908 0.632479 115 45 32
-0.0201245 0.0182441 -0.0116342 -0.293587 0.945628 0.139979 160 144 60
0.00670246 -0.0553811 -0.00608984 0.112155 -0.656018 0.746365 161 148 58
-0.0200737 0.0668982 -0.0426141 -0.918968 -0.284396 0.273162 142 134 60
0.0239961 0.0757014 -0.0251805 0.355491 0.511113 0.782553 55 56 37
-0.0168332 -0.00234934 -0.0103833 -0.322922 -0.658322 0.679951 193 167 65
-0.0178127 0.0488466 -0.00751444 0.0353786 0.938525 0.343395 156 135 55
-0.00480528 0.04272 0.00329055 -0.2192 0.343224 0.913317 94 89 40
0.019869 -0.0334648 0.0319158 0.56578 0.370829 0.736463 104 44 31
0.0227237 -0.05122 0.0345244 0.492595 0.223148 0.841163 103 42 30
0.00609162 -0.0286558 0.00475381 -0.169265 -0.104084 0.980059 83 46 32
-0.025274 -0.0586193 -0.0241976 -0.849724 -0.411356 0.329781 132 109 54
-0.00537538 0.0594009 -0.00892642 -0.84259 0.116425 0.525821 131 122 54
0.00407151 0.0638671 0.0424405 -0.802531 0.441216 0.401587 91 38 30
0.0286778 0.0368362 0.0170211 0.33962 0.367623 0.865743 26 22 22
-0.0149281 -0.0407254 -0.00423397 -0.415807 -0.321265 0.850819 161 149 59
-0.00185418 0.0201221 0.0115936 -0.69432 -0.344114 0.632064 124 112 53
0.0024857 0.0178718 0.0113858 -0.315527 -0.404649 0.858314 99 64 41
-0.000861163 -0.0385815 0.00180091 -0.297396 -0.120123 0.947167 137 127 49
-0.0267994 0.0426347 -0.00443563 -0.839227 0.499052 0.215974 101 92 44
0.00851311 -0.0912101 -0.0227166 -0.454279 -0.214511 0.864648 137 125 52
0.00639723 -0.0901466 -0.0253984 -0.881578 0.015726 0.471777 131 124 50
0.00474921 0.071672 -0.0119927 -0.14701 0.811867 0.565031 151 136 58
0.00918073 0.0121553 0.014048 -0.516093 0.0286592 0.856053 120 46 33
0.00287694 -0.0366074 0.00331663 -0.378277 -0.236617 0.894941 101 95 42
