ply
format ascii 1.0
comment Created by CloudCompare v2.11.1 (Anoia)
comment Created 4/4/21 15:26
obj_info Generated by CloudCompare!
element vertex 664
property float x
property float y
property float z
property uchar red
property uchar green
property uchar blue
property float nx
property float ny
property float nz
end_header
-0.000101261 0.00585397 0.0385947 109 45 31 -0.405313 -0.864158 0.298249 
0.0148708 0.0343818 0.0174437 96 40 34 -0.0490052 0.0686073 0.996439 
-0.0244706 0.00774948 0.0153374 123 47 33 0.54791 -0.0205981 0.836284 
0.0734072 0.00292426 -0.00393659 158 142 55 0.657648 -0.0889501 0.748056 
0.085347 0.00949481 -0.0226681 143 135 53 0.087868 -0.450498 0.888443 
-0.0199191 -0.00888894 0.00159007 136 128 58 -0.169582 -0.679857 0.713468 
0.0209756 0.00674225 -0.014917 90 51 35 -0.346025 -0.854977 0.386369 
-0.0467506 0.00122059 0.00619323 87 70 38 -0.537526 -0.769969 0.343823 
0.0455349 -0.0271048 -0.0133007 131 111 52 0.463364 -0.513188 0.722449 
0.0563046 0.0124957 0.0330698 102 45 34 0.643203 -0.219592 0.733532 
0.0629827 0.00832136 -0.00305931 153 145 56 -0.197583 -0.274958 0.940935 
0.0385293 -0.0231387 -0.0068859 139 124 51 -0.0595907 -0.486426 0.871687 
-0.070199 0.00932374 -0.00706925 144 133 58 -0.928478 0.0539966 0.36744 
-0.0445909 0.0111638 0.0153246 115 45 33 0.185458 -0.761759 0.620749 
0.0272607 0.026146 0.0237045 88 53 88 0.0273635 0.381787 0.923845 
-0.0127817 0.0100173 0.0141833 121 46 32 -0.0708326 -0.476384 0.87638 
-0.0399828 0.00676989 0.0145116 121 50 35 -0.571896 -0.538155 0.619132 
-0.0604318 -0.000170641 0.010531 119 99 52 0.749293 0.655814 0.0920185 
-0.0746942 0.0146142 -0.0215362 73 77 42 -0.767237 0.295091 0.569446 
0.0675834 -0.0172708 -0.0011753 120 115 54 -0.540974 0.325869 0.775343 
-0.00603833 0.00385297 0.005752 88 54 39 0.552312 -0.589471 0.589471 
-0.0320171 -0.0317122 -0.0127728 154 142 60 0.70032 -0.625227 0.344446 
-0.0450773 -0.0117653 0.00176798 98 88 41 -0.617696 -0.107106 0.779089 
0.0406259 -0.00325749 0.000905875 173 157 60 0.191266 -0.273827 0.942569 
-0.0331304 0.00760375 0.0179142 121 48 34 -0.175889 -0.545705 0.81931 
-0.0150236 -0.00654299 0.00145332 124 117 54 -0.256331 -0.765849 0.58972 
0.0266959 -0.0159398 -0.0111807 176 153 60 -0.670975 -0.473531 0.57058 
-0.00494947 -0.0119374 -0.00433027 160 153 62 0.471468 -0.270515 0.839368 
0.0249816 -0.0120139 -0.00765314 171 156 61 -0.904962 -0.3646 0.219341 
-0.0715516 0.00612149 -0.0113518 141 133 58 -0.828845 -0.152721 0.53823 
-0.0301973 0.00719469 0.0176442 118 47 34 0.124207 -0.339864 0.932237 
-0.00288311 -0.0247879 -0.00980248 173 155 63 0.55054 -0.444091 0.706887 
0.0168214 0.0331971 0.0176475 94 46 60 -0.26928 0.16644 0.94857 
-0.0056901 0.0114007 0.0450715 108 42 31 -0.312667 -0.286244 0.905706 
0.0265745 -0.0238374 -0.0190271 146 118 55 -0.615208 -0.767866 0.178609 
-0.0162144 0.00495548 0.0124791 101 51 35 0.133389 -0.451802 0.88209 
-0.0456587 0.0284501 0.00843956 37 26 25 -0.875286 0.366859 0.315103 
-0.047956 0.00502634 0.0120466 109 52 36 -0.0744298 -0.498539 0.863666 
-0.0590555 0.00176523 0.0376818 109 45 33 -0.229595 -0.949627 0.213293 
-0.0423575 -0.0177336 0.00192245 104 97 46 0.0621075 -0.358109 0.931612 
0.0249941 0.0284332 0.0227007 81 55 98 -0.215819 0.178746 0.959933 
0.0529732 0.0035288 -0.0047497 162 153 60 0.406432 -0.203949 0.890628 
-0.0196998 -0.0194535 -0.0185342 162 148 60 -0.178577 0.0838217 0.980349 
0.0342022 -0.0197893 -0.00521572 86 78 40 0.117166 -0.433373 0.893566 
0.0342128 -0.022393 -0.00696769 83 75 37 -0.257506 -0.737762 0.624017 
0.0317733 0.0200016 0.0302055 106 45 31 -0.159171 0.468752 0.868871 
-0.0259651 0.00271568 0.0149316 93 56 40 -0.217806 -0.314608 0.923895 
-0.0122241 0.00290118 0.00953846 97 61 39 0.400738 -0.582141 0.707475 
-0.0467924 -0.025266 -0.0129757 112 102 47 0.857545 0.485598 0.169738 
-0.00236807 0.00769616 0.00878566 111 47 34 -0.0395294 -0.31751 0.94743 
-0.0190593 0.000249432 0.0117292 111 90 47 0.580457 -0.234984 0.779649 
-0.0358816 0.0174233 0.0177055 111 43 30 0.0387723 -0.0345807 0.99865 
0.0392122 -0.00170355 0.00166466 155 140 53 0.0985733 -0.247073 0.96397 
-0.0193757 0.00389589 0.0126146 97 53 36 0.376938 -0.27482 0.884529 
0.0170586 -0.0158702 -0.0271612 171 149 63 -0.0597992 -0.955515 0.288817 
0.0524571 -0.0112889 -0.0121986 176 158 63 0.726468 -0.431909 0.534508 
-0.0092206 -0.0113127 -0.00146172 132 127 56 0.271544 -0.199867 0.941444 
0.0220549 -0.00846156 -0.0175889 159 150 62 -0.59407 0.58053 0.556835 
0.0518031 -0.0237303 -0.0149357 133 114 53 0.504921 -0.435844 0.745047 
-0.0087276 0.00969973 0.0382862 114 43 31 0.777578 0.608473 0.158535 
0.0960102 1.63302e-05 -0.038378 92 92 50 0.560899 -0.651856 0.510368 
-0.0718694 0.00863004 -0.0115752 133 126 57 -0.96232 -0.0232918 0.270921 
-0.0189598 -0.01893 -0.0180293 156 143 60 -0.482826 0.0174839 0.875542 
-0.0545763 -0.00725479 -0.00798415 142 131 58 -0.715133 -0.580326 0.389624 
-0.0113635 0.00728002 0.0123436 112 48 35 0.123198 -0.621925 0.773325 
0.0469925 0.0349641 0.0154894 105 44 32 0.286082 0.489309 0.823853 
-0.0688677 -9.34691e-05 -0.0106795 147 133 57 -0.527346 -0.171798 0.832101 
-0.0401532 0.0278516 0.0142918 38 26 24 -0.629485 -0.0734639 0.773532 
0.0517411 0.00126928 -0.0043941 169 154 60 0.419755 -0.162998 0.892881 
-0.000602267 -0.0296148 -0.0134846 156 133 62 0.679387 0.0324863 0.73306 
-0.00505665 -0.00294082 -0.000422985 70 77 48 0.39597 -0.286737 0.872347 
-0.0728638 -0.00779027 -0.0172898 98 96 46 -0.726812 -0.307807 0.614003 
2.883e-05 0.0121879 0.00809323 115 45 31 0.275883 0.626716 0.728777 
0.0655282 -0.0188063 -0.00263811 122 112 55 -0.817573 0.0405292 0.574397 
-0.0105915 -0.022837 -0.00403202 163 145 55 0.0775657 -0.119243 0.989831 
0.09133 0.00594994 -0.0270693 130 123 50 0.362153 -0.861462 0.355989 
0.0491597 -0.0270374 -0.0155746 132 110 54 0.549448 -0.620454 0.559592 
-0.0363055 0.0209113 0.0190598 108 42 31 -0.125207 -0.196032 0.972571 
0.0061924 0.014139 0.0421615 37 63 128 0.487845 0.209939 0.847309 
0.00945133 0.0141423 0.0405416 37 66 151 0.373806 -0.00382737 0.927499 
-0.0154305 0.026066 0.0184542 106 42 32 0.041349 -0.281925 0.958545 
-0.0239653 0.000338582 0.014048 108 83 45 -0.00136491 -0.591008 0.806665 
-0.0332515 -0.0248535 -0.00845197 168 151 63 0.70468 -0.202886 0.6799 
0.00323419 0.00696651 0.0221643 116 46 33 0.449552 0.874047 0.184243 
-0.0368506 -0.0316333 -0.00737702 149 139 59 0.239548 -0.533188 0.811373 
0.0536427 -0.00127057 -0.00480492 164 152 59 -0.0338687 0.0906808 0.995304 
-0.0173114 -0.0249251 -0.00919724 170 156 62 -0.866354 0.233539 0.441464 
0.035746 -0.00559585 0.00104218 79 76 38 -0.0967526 -0.380197 0.919831 
-0.0507606 0.00359148 0.00576793 101 64 41 -0.271994 -0.720546 0.637834 
0.0315 -0.0230029 -0.0112884 140 117 53 -0.308577 -0.861253 0.403761 
-0.0438424 0.00926314 0.0136195 119 47 35 -0.121743 -0.468351 0.875115 
-0.0445139 -0.00091578 0.00432499 89 84 41 -0.438054 -0.597952 0.671239 
-0.00156427 -0.0119702 -0.0060857 175 160 62 0.396761 -0.1962 0.896709 
-0.0164515 -0.0257435 -0.00685516 170 156 64 -0.831486 0.0290536 0.554785 
0.0318302 0.00715559 0.00461776 80 45 33 0.0971482 -0.111194 0.989039 
-0.0082748 0.0135446 0.0423109 108 42 31 -0.734902 0.606254 0.303931 
0.0257333 -0.0243928 -0.0220637 138 113 55 -0.615465 -0.77641 0.135611 
-0.0631295 -0.0184389 -0.0448828 176 158 65 0.282279 -0.891642 0.353968 
-0.00321648 -0.00153017 -0.000913729 58 63 45 0.549554 -0.223208 0.805089 
0.0399335 -0.0298825 -0.0222099 124 108 48 -0.147908 -0.981569 0.121015 
0.0210369 0.00547372 0.0081921 90 47 33 0.461957 -0.852258 0.245462 
0.0403567 0.0162421 0.00343583 113 48 35 0.572424 -0.122137 0.810811 
0.0247098 -0.0121443 -0.00963602 178 157 62 -0.889288 -0.254721 0.379847 
0.00902821 0.0112827 0.0402781 38 64 130 0.585559 -0.266737 0.765488 
-0.0672076 -0.0191718 -0.0398255 146 136 61 0.415654 -0.816975 0.399729 
-0.0299806 0.00865954 0.0177792 120 47 32 0.223641 -0.237361 0.945328 
-0.0139372 -0.00213295 0.00671962 116 108 52 0.59058 -0.361546 0.721457 
0.02696 0.00226839 0.0030271 46 43 42 -0.641449 -0.341127 0.68715 
0.087324 0.0082855 -0.0224386 145 132 55 -0.0457817 -0.52857 0.847654 
-0.0186006 0.0182497 0.0202798 113 42 30 0.136009 0.638196 0.757765 
-0.025435 0.00698375 0.0158128 122 48 34 0.475495 -0.112805 0.872456 
-0.0740163 0.00783561 -0.0181522 86 90 45 -0.456602 0.398518 0.795423 
0.052823 -0.0229631 -0.0154366 138 115 53 0.580972 -0.284915 0.762427 
-0.0475624 -0.00921695 -0.00272807 111 103 47 -0.822008 -0.156644 0.547508 
-0.044523 0.0289956 0.0108563 26 22 22 -0.718715 0.473057 0.509574 
-0.0714746 0.000868431 -0.0124103 150 138 58 -0.666532 0.0528087 0.743604 
-0.0415046 -0.017095 0.00192245 114 105 47 0.120104 -0.436614 0.891596 
-0.0722171 -0.00865402 -0.0174295 111 106 52 -0.632107 -0.438639 0.638778 
0.057709 0.0161181 0.0328765 94 42 32 -0.10193 -0.524008 0.845592 
0.0176122 -0.00617022 -0.0226051 146 142 61 -0.0867975 -0.846631 0.525054 
0.0594263 -0.0206802 -0.0162135 134 110 53 -0.691633 -0.254812 0.675806 
-0.00027454 0.00937303 0.0073389 114 47 33 0.423738 0.0387647 0.904955 
0.00815404 -0.0148289 -0.0176765 186 165 66 0.680324 -0.199913 0.70512 
0.0492452 0.0245299 -0.00228372 110 43 31 -0.206759 -0.890092 0.406187 
0.0509872 0.0232671 -0.00403202 112 44 31 -0.77884 -0.58684 0.22142 
-0.0466265 -0.00108236 0.00348744 85 81 40 -0.224189 -0.498706 0.837277 
0.00161952 0.00937623 0.0429322 90 43 37 0.284011 -0.402476 0.870259 
0.0413747 -0.0288663 -0.0156612 146 122 55 -0.285565 -0.865857 0.410786 
0.0305606 0.0300482 0.0219632 107 43 36 0.108406 0.190645 0.975655 
0.026666 0.0296849 0.0227007 102 49 68 -0.0149869 0.180995 0.98337 
-0.0598649 -0.0117315 -0.016658 150 140 59 0.283119 -0.87661 0.3891 
-0.0625166 0.00608359 0.0448343 103 42 30 0.0896014 -0.343695 0.934797 
-0.0450618 0.0141943 0.0204801 115 44 31 0.432166 -0.432166 0.791495 
-0.0787776 0.00335718 -0.0218678 16 18 20 -0.95532 0.0786431 0.28492 
0.0100081 0.0171373 0.0403521 37 65 149 0.289522 0.141395 0.94667 
0.0138841 0.0279172 0.0230365 41 58 131 -0.0441467 0.696378 0.716316 
0.0714324 -0.0104231 -0.00516674 142 138 58 0.00135976 0.572458 0.819933 
-0.0189833 0.0160014 0.0133559 114 44 31 -0.373733 0.280675 0.884051 
0.00174524 -0.0133698 -0.00847912 172 159 64 0.575281 -0.249236 0.779059 
0.0102826 0.00601717 0.037347 89 46 41 0.103518 -0.39613 0.912341 
0.0174811 0.0103122 0.0344757 41 65 125 0.783673 -0.235258 0.574901 
-0.0665225 -0.0174816 -0.0375759 161 149 63 0.301704 -0.922269 0.241649 
0.0631202 0.0126852 0.0270147 101 89 42 0.0209249 -0.629141 0.77701 
-0.0262768 0.0127818 0.017439 117 45 33 0.443174 -0.216364 0.869933 
0.044771 0.00251229 0.000204125 153 140 57 0.591658 -0.106645 0.799104 
0.0102565 0.033531 0.0177136 94 40 32 0.185782 0.228552 0.955641 
0.0658784 -0.000141874 -0.000242765 138 125 54 -0.0280563 -0.442221 0.896467 
-0.0321701 -0.0227128 -0.00831401 156 143 59 0.620681 -0.395581 0.676957 
0.0595224 -0.00739595 -0.00836648 183 163 63 -0.568937 -0.77697 0.269497 
0.0947718 0.0085087 -0.024519 146 136 54 0.263649 -0.768844 0.582553 
0.00881349 -0.00658992 -0.0113268 135 128 56 0.637164 0.0736857 0.767198 
0.0123199 0.0163929 0.0391809 36 67 144 0.491254 0.254097 0.833129 
0.045715 -0.0217194 -0.00779044 122 109 50 0.444448 -0.281432 0.850448 
-0.0232395 0.0268884 0.0177055 100 40 28 -0.194049 -0.300147 0.933947 
-0.0342804 0.010602 0.0187932 120 47 33 -0.256765 -0.226231 0.939623 
0.0302711 -0.0069529 -0.00161297 156 134 52 -0.196453 -0.193816 0.961167 
-0.0616949 -0.0106589 -0.0138558 144 134 58 0.263983 -0.605423 0.75085 
-0.0623126 -0.00606378 -0.0102874 132 122 55 -0.149409 -0.7229 0.674606 
-0.0095552 0.00493694 0.00905736 97 51 37 0.461927 -0.541972 0.702062 
-0.0735726 0.030714 -0.0320336 27 32 29 -0.488176 0.676065 0.551924 
0.0355162 0.0258983 0.0225663 104 41 31 0.0632909 0.399945 0.914351 
-0.0395745 0.0241273 0.015796 100 41 32 -0.567695 0.507051 0.648554 
0.016419 -0.000762755 -0.0138278 56 56 45 0.301483 -0.851881 0.42826 
-0.0312698 -0.0245725 -0.0105822 170 153 62 0.762757 -0.266886 0.589044 
-0.0647821 0.00100609 0.00658803 135 125 56 -0.5863 -0.566025 0.579542 
-0.00612457 -0.0312041 -0.010216 145 132 59 0.570734 0.290931 0.767868 
0.0283007 -0.00577078 -0.00182858 156 147 60 -0.279233 -0.335375 0.899751 
-0.0408463 0.0161551 0.0193992 112 44 31 0.376126 -0.0514699 0.925138 
0.0622379 -0.0132653 -0.0136616 164 144 60 -0.85656 -0.32256 0.402815 
-0.00457403 0.00259995 0.00159007 68 52 42 0.642738 -0.481634 0.595749 
-0.0688941 -0.0141018 -0.0197927 153 142 61 -0.500313 -0.641815 0.581171 
-0.0471518 -0.010325 -0.00188056 104 96 46 -0.852472 -0.0688157 0.518224 
-0.0265912 0.00355189 0.0150669 99 52 36 -0.200669 -0.334449 0.920802 
-0.0559875 0.00284086 0.0134124 106 53 38 0.421944 -0.902988 0.0810903 
0.027034 -0.00150868 0.000184685 44 52 45 -0.513469 -0.550506 0.65825 
0.0386246 0.0200346 0.00688344 108 44 33 0.417424 -0.670206 0.613662 
-0.0364236 -0.0273912 -0.00597328 158 143 60 0.621585 -0.454042 0.63834 
0.0415072 -0.023554 -0.00716002 151 132 59 0.130789 -0.40643 0.904272 
-0.010814 0.0269172 0.0181842 105 43 31 0.127049 0.127049 0.983726 
0.0309404 -0.0234001 -0.0122833 142 120 54 -0.255276 -0.827714 0.499723 
0.036644 0.0334117 0.020419 104 43 31 0.0752426 -0.121546 0.98973 
-0.0296833 -0.00112354 0.0119283 126 110 53 0.140975 -0.160936 0.976845 
0.0286498 0.0111735 0.0081921 108 46 34 0.568104 -0.688055 0.451484 
0.0307636 0.00504432 0.0044817 62 41 36 0.00109171 -0.123363 0.992361 
0.027595 -0.0062792 -0.00231863 157 148 60 -0.370874 -0.298213 0.879501 
0.0611616 -0.0247122 -0.024846 133 110 55 0.215716 -0.929129 0.30031 
0.0182931 -0.0139364 -0.0183707 181 161 62 -0.362078 -0.292968 0.884912 
-0.0122082 0.00664754 0.0123436 112 49 37 0.229418 -0.528123 0.81759 
-0.0275427 -0.0105647 0.00102374 152 142 59 0.498938 -0.549336 0.670291 
0.0317414 0.0173266 0.0313231 105 44 32 -0.316077 0.506677 0.802106 
0.058922 0.0169375 0.0035293 93 54 35 -0.580775 -0.664461 0.470311 
0.0618667 -0.0202023 -0.0113641 141 114 53 -0.904338 0.316151 0.286741 
-0.00768429 0.0112516 0.0443033 109 43 31 -0.11808 0.144862 0.982381 
-0.0369151 -0.00887071 0.00829131 149 136 59 -0.238829 -0.361906 0.901102 
0.0414045 -0.0118302 -0.00200024 172 156 60 0.200357 -0.49562 0.845114 
0.0288359 0.0124546 0.0112064 113 48 34 0.665039 -0.668291 0.333332 
0.00703666 -0.0131071 -0.0148833 180 165 66 0.821877 -0.312722 0.476154 
-0.0291389 0.00928963 0.0177792 121 47 32 0.289725 -0.17713 0.940577 
0.0275383 -0.0240127 -0.0381677 127 100 54 -0.469832 -0.882755 0.00132347 
-0.0510888 0.000758398 0.00500873 115 99 50 -0.184151 -0.510532 0.839908 
-0.043736 0.0312078 0.00857617 21 20 19 -0.778123 0.509581 0.367222 
0.08375 0.0258022 -0.0228908 119 112 46 0.651686 0.261626 0.711939 
-0.0578005 -0.0218452 -0.0565053 141 134 63 0.551941 -0.777808 0.300625 
-0.0326164 0.0130521 0.0198739 115 46 34 0.316874 -0.0265114 0.948097 
0.0323371 0.011447 0.00550931 98 47 32 0.362153 -0.355989 0.861462 
-0.0341807 0.0119299 0.019401 120 46 32 0.0214634 -0.324476 0.945651 
-0.0112213 0.0212659 0.0190649 109 42 31 -0.211835 0.422188 0.88141 
-0.0425259 -0.00861989 0.00288012 98 93 44 -0.436066 -0.0144916 0.899798 
0.0141941 -0.00106533 -0.0141906 56 59 44 0.128577 -0.897212 0.422467 
-0.0209883 -0.0177325 -0.0182559 142 133 59 0.154395 -0.23621 0.959358 
-0.0783323 0.0257052 -0.0316519 48 49 39 -0.856128 0.329757 0.397875 
-0.0368402 0.0166535 0.0181801 113 44 30 0.126057 -0.00328846 0.992018 
0.0404523 -0.0250136 -0.0562966 66 59 37 0.439606 0.896795 0.0500474 
-0.021689 -0.029321 -0.0133264 165 152 64 -0.973333 0.0703169 0.218352 
0.0349887 -0.0100303 -0.00180698 83 80 39 -0.324714 -0.386271 0.863339 
-0.020234 -0.0253373 -0.0170698 173 158 63 -0.657145 0.162389 0.736064 
-0.0279594 0.0247116 0.0173661 106 41 30 0.207814 -0.315255 0.925974 
-0.01048 0.0067114 0.0112502 108 48 35 0.283049 -0.663645 0.69243 
0.0154954 0.00998093 0.0364357 42 65 130 0.421006 -0.411401 0.808395 
0.0684842 -0.000794904 -0.00197879 120 113 52 0.316583 -0.580135 0.750479 
-0.0639539 -0.0241681 -0.050272 147 137 69 0.26074 -0.900069 0.349127 
-0.0416526 0.0195693 0.0188557 108 44 31 -0.0620188 0.464452 0.883424 
0.000100529 0.00450559 0.00534326 85 50 36 0.00804203 -0.982277 0.187264 
0.0104067 0.0148918 0.0400884 37 65 148 0.16091 -0.0552025 0.985424 
-0.0560331 -0.0164382 -0.0388121 172 152 64 0.246104 -0.9685 0.0379564 
0.0544964 -0.000631442 -0.00480492 163 154 59 -0.0681555 0.123604 0.989988 
0.00523556 0.0073024 0.0383307 99 43 35 0.260294 -0.601043 0.755642 
-0.037885 -0.0195924 0.000398635 149 137 56 0.112735 -0.144252 0.983098 
-0.0237746 0.00300946 0.015272 98 54 37 0.0860655 -0.175768 0.980662 
-0.0113431 -0.0102582 -0.00118773 128 121 55 0.0648973 -0.278677 0.95819 
-0.0785583 0.0284275 -0.032414 42 44 38 -0.736207 0.525391 0.426572 
0.0451312 0.0133582 0.000321245 91 56 36 0.667015 0.311705 0.676706 
-0.0681606 -0.00744634 -0.0130211 143 132 57 -0.208444 -0.594451 0.776646 
-0.0216767 0.0280065 0.0181801 88 38 30 -0.0823546 -0.252132 0.964182 
0.0515604 0.0210732 -0.00479793 113 47 34 -0.907747 -0.386185 0.163879 
-0.0214336 -0.00745662 0.00283812 143 129 56 -0.0709109 -0.874567 0.479691 
-0.0614653 -0.0185257 -0.0455584 172 153 66 0.179938 -0.855076 0.486278 
0.0617647 0.0138496 0.00201464 145 125 49 -0.753709 -0.56972 0.32763 
0.073175 -0.00778573 -0.00699588 144 131 53 0.0951609 -0.00534612 0.995448 
-0.0708004 -0.016426 -0.0245372 110 110 52 -0.0909477 -0.961996 0.257472 
0.048427 -0.00388189 -0.00368672 155 144 58 0.412177 0.0331332 0.910501 
0.0207478 0.0264744 0.023772 42 64 142 0.0289644 0.550323 0.834449 
-0.00345241 0.00720147 0.0385356 108 43 32 -0.122895 -0.971759 0.201447 
-0.0387167 0.0191599 0.0185854 106 43 30 -0.0385604 0.0936467 0.994858 
0.0845322 0.0196175 -0.0215557 126 121 49 0.47325 0.316024 0.822291 
-0.0142663 0.0151273 0.018187 115 44 31 0.264841 -0.8843 0.384543 
0.027963 -0.023731 -0.0366026 131 104 54 0.469946 0.882646 0.00931904 
0.0506421 -0.00615959 -0.00507878 167 156 61 0.414042 -0.221119 0.882993 
-0.0176558 -0.0316909 -0.0128786 153 146 64 -0.0777685 -0.959995 0.269002 
-0.00220502 0.0152768 0.0452028 106 42 33 -0.133845 0.202679 0.970055 
-0.0249829 -0.00864816 0.00102374 156 142 59 0.160832 -0.795142 0.584707 
-0.00603658 0.00760909 0.00857526 111 49 34 0.500133 -0.486841 0.716138 
0.0205297 -0.011004 -0.0162166 172 157 64 -0.693095 0.149491 0.705175 
0.00945932 0.00540077 0.037347 100 45 35 0.00681018 -0.562521 0.826755 
-0.0266879 0.00221674 0.014454 95 61 41 -0.407707 -0.414102 0.813815 
-0.0602691 0.00532952 0.0436671 114 46 33 0.276381 -0.458576 0.844583 
0.0301845 -0.00059708 0.00296791 43 51 45 -0.207945 -0.580705 0.787109 
0.00407751 0.00277023 -0.00350639 51 44 38 0.429687 -0.863929 0.262671 
-0.0364933 -0.00470178 0.00966277 137 125 55 -0.195333 -0.286765 0.937876 
-0.0603143 -0.0143795 -0.0210026 155 142 58 0.20209 -0.76671 0.609357 
0.0556541 0.018472 0.00296791 104 48 32 -0.340489 -0.711931 0.614183 
-0.0126012 0.0126793 0.0154072 116 45 31 0.247539 -0.380944 0.890846 
-0.00054607 0.0102561 0.0436461 104 43 32 0.347089 -0.350147 0.870015 
-0.0309884 0.0170229 0.0187242 112 46 32 -0.265385 0.0749173 0.961227 
-0.0422702 0.00272877 0.0113672 97 58 40 -0.161464 -0.252205 0.954108 
0.047463 0.0339838 0.0158292 106 44 32 0.178762 0.640183 0.747135 
-0.0420431 -0.0136599 0.00379446 110 103 45 -0.343238 -0.243918 0.907024 
0.0101211 -0.0185502 -0.0222854 178 155 63 0.523303 -0.719334 0.456852 
-0.0214597 0.0294726 0.0183152 59 31 26 -0.139591 -0.144532 0.979604 
6.43554e-05 -0.0120507 -0.00671759 169 158 62 0.417588 -0.221426 0.881244 
0.0589653 0.0119103 -0.00237557 175 154 59 -0.50616 -0.436914 0.743578 
-0.0732672 -0.0041623 -0.0158569 105 98 46 -0.870871 -0.338247 0.356613 
-0.0352223 -0.0163145 0.00102374 153 142 59 0.163939 -0.392028 0.905228 
-0.0263208 -0.0156023 -0.00903333 162 144 62 0.615667 -0.531329 0.581932 
-0.0151226 0.0288515 0.019198 89 39 30 0.173488 -0.0705918 0.982303 
-0.0524303 -0.0158025 -0.0151079 174 153 60 -0.726088 -0.613391 0.310721 
0.00158641 0.00691519 0.0413144 107 44 31 0.364191 -0.736548 0.569967 
0.0299594 -0.0176812 -0.00466799 157 130 54 -0.439075 -0.196623 0.876671 
-0.008914 0.0296423 0.0183192 96 42 33 -0.056671 -0.201363 0.977876 
0.0721163 -0.000679814 -0.00420995 146 137 55 0.562055 -0.341768 0.753186 
-0.0223134 -0.00687092 0.0039482 146 130 58 0.0144014 -0.90729 0.42026 
0.00114421 0.00196484 -0.00435453 47 48 41 0.619365 -0.511355 0.595738 
0.084257 0.00733705 -0.0228071 152 141 54 0.335986 -0.323932 0.88441 
-0.0608088 0.0019953 0.0355235 97 41 32 -0.587388 -0.761546 0.273903 
-0.0245117 -0.024459 -0.0176622 173 157 62 0.00588764 -0.227263 0.973816 
-0.00830121 -0.0288885 -0.00880984 141 130 57 0.413432 -0.501675 0.759866 
0.0673298 0.00358454 -0.000457195 146 136 52 0.159107 0.149085 0.97594 
0.0616802 -0.0124069 -0.00855925 171 151 60 -0.7353 -0.620955 0.271569 
0.0169792 0.0204351 0.0318632 37 66 147 0.329489 0.719032 0.611907 
-0.0595571 -0.0151161 -0.021653 160 147 61 0.146242 -0.74327 0.652811 
-0.00545252 -0.0071388 -0.0018146 130 130 58 0.285707 -0.333078 0.898571 
0.0571335 0.0182657 0.00283173 103 50 34 -0.488782 -0.592921 0.639951 
-0.0619915 0.00907634 0.0446469 108 44 30 0.148484 -0.12885 0.980485 
-0.061753 -0.00333765 -0.00651807 139 129 57 -0.0380421 -0.773523 0.632626 
0.00925229 -0.0192007 -0.0222854 179 156 65 0.541532 -0.704825 0.458219 
-0.0169339 0.00445659 0.0120003 99 51 37 0.146261 -0.464851 0.873225 
-0.0420512 0.0206858 0.0180424 109 44 31 -0.267941 0.600886 0.753089 
-0.0264933 -0.0195973 -0.0114426 141 133 59 0.738949 -0.590189 0.325008 
-0.00562039 0.00856925 0.0333147 112 44 31 0.482844 0.826616 0.289081 
0.00309786 0.000934537 -0.00710151 46 51 45 0.625888 -0.195302 0.755064 
0.0131119 0.00346434 0.0299396 110 47 33 0.237015 -0.935438 0.262259 
-0.0459566 -0.0177085 0.00122024 104 92 44 -0.330125 -0.0861773 0.939995 
0.0390101 -0.0291507 -0.0297258 83 74 40 0.355689 0.928063 0.110386 
-0.0630488 -0.0221967 -0.0490549 158 143 65 0.358685 -0.656771 0.663322 
0.0485303 -0.0209167 -0.00941095 138 122 56 0.675913 -0.484712 0.555154 
0.0242446 0.0155871 0.0312609 62 60 117 -0.168447 0.262777 0.950039 
0.00079988 0.00876253 0.0429322 99 43 34 0.389526 -0.327941 0.860653 
0.000358305 -0.0183717 -0.00938902 184 169 65 0.623066 -0.340002 0.704406 
0.0432543 0.0319119 0.0192756 105 42 31 0.157272 0.381136 0.911044 
-0.0725905 0.0116693 -0.0183806 106 104 51 -0.81395 0.0292187 0.5802 
-0.0393556 0.00593216 0.0143761 120 51 35 -0.552846 -0.512517 0.65703 
-0.0470684 -0.0258441 -0.00798371 106 95 45 -0.847089 -0.258875 0.464137 
0.0348361 -0.0206359 -0.00535267 77 71 36 0.0332258 -0.423961 0.905071 
-0.051797 -0.00422957 -0.00387601 144 134 60 -0.175522 -0.41632 0.892115 
-0.0279529 -0.00849718 0.00470638 154 141 60 0.426793 -0.855127 0.294287 
-0.00273615 0.00401113 0.0011016 77 52 40 0.482183 -0.656911 0.579627 
-0.0164052 0.033257 0.0183152 25 23 21 0.143514 0.215917 0.965807 
-0.0041227 -0.0323837 -0.00999448 145 129 59 0.488658 0.321028 0.811267 
0.04219 -0.0125476 -0.0026267 178 160 62 0.256471 -0.593188 0.763119 
-0.00676033 0.0246965 0.0181185 108 44 31 -0.160821 0.160821 0.973793 
-0.0780186 0.0152461 -0.0243387 33 36 28 -0.178046 0.406755 0.896019 
-0.0490682 -0.0193109 -0.00765252 140 125 53 -0.925806 0.0597722 0.373244 
0.00385215 0.00866373 0.00499508 109 48 35 -0.251931 -0.959426 0.126618 
0.0284374 0.00461537 0.00461776 70 44 39 -0.121739 -0.301004 0.94582 
0.0604292 -0.011948 -0.0143839 166 154 61 -0.560575 -0.370993 0.740351 
-0.0702734 0.000251941 -0.0110418 149 136 58 -0.556065 -0.0905222 0.826195 
-0.0586787 -0.0132025 -0.0204922 155 143 58 0.123256 -0.755873 0.643012 
0.0497728 0.0329919 0.0174549 103 42 31 0.126746 0.729163 0.6725 
-0.0393803 0.0083311 0.0165546 120 48 35 -0.164046 -0.582438 0.79615 
-0.0414756 0.00937224 0.0168251 121 47 34 -0.538213 -0.682407 0.494619 
-0.068286 0.00261707 -0.00690442 134 124 55 -0.907272 -0.331644 0.258594 
-0.023868 -0.0253187 -0.0178013 172 157 64 -0.0312753 -0.29649 0.954524 
0.05823 0.0139612 -0.00112388 146 126 53 -0.308092 -0.662963 0.682319 
-0.0522448 0.00258322 0.00479545 114 85 48 -0.368323 -0.425231 0.826751 
-0.0135381 -0.0067502 0.00131658 130 120 54 0.0648007 -0.709927 0.701287 
-0.0651152 -0.00537915 -0.0110114 136 126 56 -0.365645 -0.500949 0.784445 
-0.0601337 0.0108443 0.0519501 106 42 33 -0.639263 -0.751628 0.162473 
-0.0764145 0.00321462 -0.0174144 43 44 31 -0.623583 0.158538 0.765513 
0.0966887 0.00728924 -0.0314554 141 134 53 0.498873 -0.730907 0.465725 
0.062994 0.00299253 -0.0011602 164 156 59 -0.730471 -0.107726 0.674394 
0.0430706 -0.0257725 -0.0609162 61 57 38 0.451755 0.8851 0.111877 
-0.000582056 0.0346258 0.0177092 41 28 27 -0.0950502 -0.193804 0.976425 
0.0469029 0.0240981 -0.00214672 106 43 31 0.406467 -0.854663 0.32301 
-0.0741972 -0.00856817 -0.019323 49 53 33 -0.382496 -0.207973 0.900247 
-0.0316853 0.00125972 0.0128136 105 75 44 0.0981961 -0.348394 0.93219 
0.0152643 -0.00152056 -0.0158364 57 61 45 0.220389 -0.83748 0.500056 
-0.0365026 0.0302927 0.0166796 20 19 18 -0.295403 0.443877 0.845996 
0.00600327 -0.0230382 -0.0209003 168 151 63 0.774674 -0.401142 0.488841 
-0.0267884 -0.0173526 -0.00817606 147 134 57 0.724602 -0.297231 0.621776 
0.0316566 0.0282464 0.0221643 108 43 34 0.244872 0.172615 0.954066 
-0.0535171 -0.00922538 -0.0072652 143 133 59 -0.741943 -0.34256 0.576345 
0.0584287 -0.0161029 -0.0151606 147 130 58 0.0732117 -0.128992 0.988939 
-0.0350166 -0.00490767 0.00952687 135 126 55 -0.195333 -0.286765 0.937876 
0.00238455 0.00405531 0.0359193 110 44 33 -0.393783 -0.905558 0.157797 
-0.0570928 0.00722722 0.0477202 118 45 34 -0.499307 -0.848077 0.177366 
-0.00287057 0.0124086 0.0112502 116 44 33 0.447614 -0.467289 0.762419 
-0.058651 -0.00610026 -0.009564 132 125 55 -0.125804 -0.857493 0.498879 
-0.0564901 0.00225598 0.00311962 117 94 50 0.245031 -0.824476 0.510097 
-0.0132739 0.0211218 0.0182534 110 42 29 -0.27666 0.143008 0.950267 
-0.043829 0.0265876 0.0129891 57 30 27 -0.391688 0.265627 0.880922 
-0.00532012 0.00435464 0.00623628 91 53 37 0.500722 -0.622109 0.601878 
-0.00492242 0.0313282 0.0181842 85 39 28 0.112795 -0.0895386 0.989576 
-0.0195983 0.00887293 0.0141128 123 48 33 -0.0249131 -0.214727 0.976356 
-0.012961 -0.00136608 0.00623628 107 98 47 0.549566 -0.476068 0.68654 
0.0478079 0.0162962 0.0350416 105 43 31 -0.33989 -0.91264 0.227075 
0.0466619 -0.0223216 -0.00891549 127 112 52 0.634398 -0.460315 0.621007 
-0.0157404 -0.0135822 -0.000696852 140 129 55 -0.0971139 -0.460235 0.882469 
-0.0193158 -0.0303413 -0.0111045 164 152 63 -0.304814 -0.500654 0.810206 
-0.0179243 -0.0223822 -0.014917 175 156 62 -0.896483 0.262277 0.357112 
-0.0100467 -0.0250522 -0.00479793 157 143 59 0.228209 -0.516151 0.825535 
-0.0702053 0.0122454 -0.00878971 123 119 56 -0.828404 0.21511 0.51718 
-0.0232168 -0.000366898 0.0134359 118 96 47 0.0324356 -0.689609 0.723455 
0.0696727 -0.00381488 -0.00532844 116 113 53 0.174599 -0.208731 0.962261 
0.0548411 0.00494293 -0.00524115 161 152 60 0.555428 -0.102964 0.825166 
0.0615331 -0.0244336 -0.0233213 134 113 55 0.164788 -0.952557 0.255891 
-0.00617228 0.0329976 0.0184542 47 30 27 0.130753 -0.113959 0.984844 
-0.0490532 -0.0102436 -0.00371504 129 119 52 -0.574738 -0.12854 0.808179 
-0.0600827 0.00206656 0.03964 104 44 33 0.0413197 -0.957865 0.284229 
0.0636465 -0.0228471 -0.00880475 130 104 52 -0.836039 -0.0992886 0.539612 
-0.00661566 -0.0106247 -0.00257969 139 136 60 0.443877 -0.295403 0.845996 
0.0639307 0.00103966 -0.000457195 165 148 60 -0.598765 -0.332647 0.728578 
0.0146872 0.0118316 0.0380667 39 67 146 0.437034 -0.309501 0.844518 
0.0798974 0.0173852 -0.0173768 129 122 50 0.71846 0.064791 0.692544 
0.0695794 0.00660657 -0.00129664 128 122 51 0.245693 -0.212751 0.945712 
-0.0721629 -0.00490645 -0.0139748 131 120 54 -0.74356 -0.303526 0.595811 
-0.0117959 0.0145015 0.0164936 117 45 32 0.165492 -0.763691 0.62401 
-0.00288685 0.0235165 0.0196063 107 42 32 -0.0336346 0.456086 0.8893 
0.0574414 -0.0101602 -0.0159724 172 160 64 0.0305957 -0.258227 0.9656 
0.0610643 -0.00367938 -0.00366322 152 145 58 -0.16878 -0.533226 0.828965 
0.0454919 0.0242242 0.000437275 105 43 31 0.448498 -0.871833 0.196866 
0.055267 0.0157793 -0.00267182 101 70 42 -0.773329 -0.513932 0.371263 
0.0468234 -0.0077478 -0.00297981 172 160 62 0.459609 -0.17474 0.870761 
0.0259248 0.0195026 0.0301428 82 54 95 0.0882381 0.384175 0.919034 
0.0407527 -0.00840858 -0.000126965 176 160 59 0.194063 -0.175829 0.965103 
0.0374918 0.0165916 0.00612851 111 47 34 0.433513 -0.179536 0.883082 
-0.0458395 0.0298802 0.0066355 28 22 22 -0.824463 0.432012 0.365549 
0.023887 -0.0134544 -0.0669296 158 138 59 -0.355111 -0.93457 0.0217938 
-0.02664 -0.000194527 0.0122714 115 99 50 -0.343432 -0.399375 0.850032 
0.0453815 -0.0267916 -0.0644774 85 77 45 -0.421018 -0.906706 0.0250763 
0.0388676 -0.0163305 -0.00374303 132 128 51 0.208473 -0.52803 0.82324 
0.0671686 -0.00437704 -0.00470026 106 101 52 0.212614 -0.273758 0.938004 
-0.0401222 -0.0186625 0.00116061 128 117 51 0.195333 -0.286765 0.937876 
0.0608783 -0.0182695 -0.0145749 143 121 55 -0.394792 0.212806 0.893786 
0.0372239 0.0364737 0.0202164 70 36 31 0.204586 0.209935 0.956071 
0.0646667 -0.00493856 -0.00407328 143 127 52 0.0559027 -0.336716 0.939945 
0.00807385 0.0105352 0.0407303 42 60 112 0.59476 -0.347079 0.725118 
-0.00171583 -0.0212777 -0.00903016 187 165 66 0.567569 -0.259415 0.78139 
-0.0444648 1.14164e-05 0.00882376 93 79 42 -0.377623 -0.795418 0.474037 
0.0264492 -0.0123469 -0.00482996 174 155 60 -0.564166 -0.506907 0.651738 
0.0525723 0.014744 0.0349698 107 43 30 -0.0821149 -0.594973 0.79954 
0.0339492 0.0286691 0.0220302 106 42 31 0.10636 0.0743373 0.991545 
-0.0092193 0.026856 0.0175741 108 44 31 0.0453289 0.0368956 0.998291 
0.0608048 -0.0209905 -0.0133538 131 109 52 -0.941707 -0.00375182 0.336413 
-0.0692878 0.00227272 -0.0104017 146 133 60 -0.742149 -0.229675 0.629654 
-0.058359 -0.0162306 -0.0296489 162 149 63 0.254097 -0.96507 0.0638373 
0.0639573 -0.019976 -0.00557678 139 115 53 -0.849506 -0.0718487 0.522664 
0.0463954 0.0116697 4.81248e-05 114 90 46 0.706296 0.179255 0.684846 
0.0584751 -0.0016502 -0.00374303 156 144 57 -0.451699 -0.171032 0.875623 
0.0363795 -0.028441 -0.0279074 64 57 35 0.418398 0.897784 0.137575 
-0.00572597 -0.0269603 -0.00880984 149 136 60 0.478154 -0.602306 0.639216 
0.0656302 0.0023121 -0.000457195 155 143 58 0.0417574 0.00305542 0.999123 
0.00355906 0.00359482 0.0367 115 45 32 -0.124088 -0.910447 0.394574 
-0.00487075 0.00839538 0.0424247 106 43 31 0.12511 -0.903886 0.409068 
0.0253439 -0.0182205 -0.0133138 169 147 58 -0.611999 -0.384355 0.691179 
0.0271769 0.00884193 0.0066117 90 44 32 0.479294 -0.613832 0.627286 
-0.0351164 -0.0316038 -0.0085078 156 144 61 0.498046 -0.438872 0.747891 
-0.0205222 -0.00927022 0.000613125 139 130 59 -0.231894 -0.589851 0.773499 
-0.0473268 0.0227154 0.0123731 107 44 32 -0.0920452 0.638472 0.764121 
-0.0225166 0.0209569 0.0165546 111 43 29 -0.0815308 -0.183748 0.979586 
0.0548923 0.0155605 -0.00414465 104 78 42 -0.835539 -0.517524 0.184509 
0.0492844 0.0171324 0.040492 105 42 31 0.414764 -0.749197 0.516405 
-0.0497909 -0.0144798 -0.00759685 168 153 62 -0.741434 -0.450805 0.497042 
0.0444653 -0.0305433 -0.0170781 133 108 55 -0.113887 -0.966119 0.231613 
0.054496 0.0127741 0.02443 99 48 35 0.426379 0.902841 0.0554969 
-0.0101281 -0.00419709 0.00131658 92 86 47 0.480231 -0.392916 0.784216 
-0.0220631 -0.0280197 -0.0177131 167 155 64 -0.762726 -0.142356 0.63086 
-0.0365991 -0.0326536 -0.00950189 144 137 58 -0.158253 -0.902472 0.400624 
-0.0330547 0.0232913 0.0195342 107 41 31 0.18211 0.0916663 0.978996 
-0.0689092 -0.0153625 -0.0209528 148 140 58 -0.38256 -0.727357 0.569736 
-0.0754519 0.0111388 -0.0202817 60 62 38 -0.313002 0.405515 0.858829 
0.0560912 -0.023163 -0.019228 132 111 51 0.549174 -0.47239 0.689388 
-0.0779147 0.019615 -0.0254628 40 41 31 -0.54327 0.124469 0.83028 
0.0482962 0.00128369 -0.00264906 156 149 61 0.51718 -0.21511 0.828404 
-0.0301558 0.0047979 0.0154726 109 49 33 0.0411287 -0.753081 0.656641 
0.0247742 -0.0206488 -0.0370812 149 121 58 0.72909 0.67585 0.107959 
-0.0745769 0.0117939 -0.0202817 76 78 43 -0.499383 0.283349 0.818737 
-0.0295226 0.0300103 0.0185166 26 22 21 -0.309691 -0.105002 0.945022 
-0.0354068 0.00478135 0.0158784 111 49 35 -0.0443727 -0.428936 0.902244 
0.052478 -0.0258706 -0.0187241 132 112 56 0.404652 -0.798019 0.446568 
0.0573357 0.0158684 0.000613415 101 70 39 -0.424618 -0.759066 0.493475 
0.0253379 0.0074382 0.00709395 87 45 34 0.436212 -0.748968 0.498764 
-0.0312816 0.0326638 0.0184482 19 20 18 -0.355919 -0.026983 0.934127 
0.00603206 -0.0203945 -0.0191029 179 158 63 0.733569 -0.462 0.49843 
0.0483474 0.0118769 -0.00155509 125 107 48 0.627537 0.00137317 0.778585 
-0.0169213 -0.00550314 0.00416065 129 119 54 -0.0947415 -0.968889 0.228643 
-0.0472064 -0.0241621 -0.0138415 116 107 50 0.882047 0.45456 0.123971 
-0.0311159 -0.0107895 0.00373518 148 138 58 0.373258 -0.805789 0.459764 
0.0562148 -0.00845718 -0.013196 177 160 61 0.380726 -0.750013 0.540859 
0.0876329 0.00719237 -0.0241015 143 132 52 0.0951184 -0.765338 0.636562 
0.00799522 0.00923803 0.0401463 52 57 90 0.482518 -0.522589 0.702907 
-0.0710368 -0.000261969 -0.011544 150 138 57 -0.530325 -0.012207 0.847706 
-0.0574567 0.000262229 0.00249394 136 124 58 0.356115 -0.57076 0.739875 
-0.008456 -0.0120323 -0.00208873 140 133 57 0.407133 -0.326635 0.852967 
-0.0228319 -0.0322837 -0.0247374 153 148 64 0.243323 -0.862964 0.442817 
-0.0097362 -0.0221967 -0.00403202 158 141 59 0.167325 -0.125184 0.977922 
0.0145351 0.00923153 0.0368913 46 62 114 0.294344 -0.462541 0.836312 
-0.0417291 -0.0263647 -0.000992233 106 97 47 -0.0918978 -0.62578 0.774567 
0.0644594 0.0136559 0.02794 97 92 43 0.0209249 -0.629141 0.77701 
0.0323102 -0.00678122 -0.000771216 108 98 44 -0.354463 -0.231932 0.90585 
-0.0708557 0.0160381 -0.0103779 86 86 46 -0.888887 0.129422 0.439466 
-0.00350104 -0.0305304 -0.011349 154 136 61 0.515913 0.126435 0.847259 
0.058617 -0.010628 -0.0151089 173 158 62 -0.347043 -0.185562 0.919309 
-0.0752694 0.0258264 -0.026073 51 50 35 -0.593893 0.486219 0.641001 
-0.0290556 -0.00196205 0.0117927 128 116 54 0.14641 -0.216376 0.96527 
0.064172 -0.00925924 -0.00497375 152 135 55 -0.27171 -0.277461 0.921515 
0.0568945 -0.0238958 -0.0198704 128 109 52 0.627286 -0.479294 0.613832 
0.0243385 0.0195662 0.0307373 63 60 121 -0.333548 0.216162 0.917616 
-0.00429052 -0.0036561 -0.00105073 93 95 51 0.43337 -0.309106 0.846548 
0.0247635 -0.0109079 -0.00603321 171 154 62 -0.879686 -0.367924 0.301304 
-0.0373582 0.00355209 0.0134914 105 54 37 -0.43467 -0.664495 0.607872 
-0.0753068 0.0276017 -0.0290442 43 43 34 -0.57994 0.689613 0.433709 
-0.0238388 0.026544 0.0167543 106 40 30 -0.0517143 -0.203249 0.97776 
0.0334886 -0.0177064 -0.00396035 107 94 42 0.116715 -0.363875 0.924106 
0.0532543 0.00636569 -0.00398331 161 148 59 0.395823 -0.0410385 0.917409 
-0.0728264 -0.00529122 -0.0149847 115 107 49 -0.861438 -0.352897 0.365225 
-0.0199345 0.000823552 0.0128225 106 79 43 0.550877 -0.199903 0.810292 
0.0422742 0.0189922 0.00357208 111 45 32 0.631071 -0.460331 0.624376 
-0.0658514 -0.00341369 -0.0092319 138 131 58 -0.598411 -0.66842 0.441724 
-0.0231007 -0.0194097 -0.0167402 154 147 59 0.435297 -0.199204 0.877972 
-0.0683353 0.010289 -0.00359063 136 131 62 -0.844165 0.063207 0.532344 
0.0154747 0.0249233 0.0263739 35 63 141 0.10342 0.811334 0.575362 
-0.0176747 -0.00981329 0.000827985 139 130 57 0.348105 -0.0216769 0.937205 
-0.0217138 -0.0263891 -0.0180794 171 158 63 -0.471226 -0.103302 0.875942 
-0.0541602 -0.0120985 -0.0105342 141 134 54 -0.822253 -0.408741 0.396018 
0.0433311 0.00661792 0.00269555 165 147 57 0.504792 -0.410041 0.759639 
-0.0727892 0.0155758 -0.0179603 97 96 49 -0.886312 0.0392413 0.461423 
-0.0328293 -0.00339551 0.0109689 129 121 54 -0.315709 -0.376716 0.870869 
-0.0472956 -0.0145375 -0.000817633 122 106 46 -0.872121 0.131179 0.471378 
-0.0045142 0.0290287 0.0179142 104 43 31 0.0843605 0.109784 0.990369 
0.000639679 0.00400055 -0.000639732 71 48 38 0.059383 -0.874174 0.481969 
0.0165326 -0.00570595 -0.0209404 133 130 58 0.0736254 -0.757909 0.648193 
-0.0652804 0.00661396 0.0446469 90 38 29 -0.429354 -0.387855 0.815613 
0.0110169 0.0140768 0.0399566 38 66 151 0.240218 -0.128549 0.96217 
0.0304704 -0.0133505 -0.00376679 153 129 52 -0.176244 -0.126246 0.976217 
0.0408874 -0.0305003 -0.0233633 125 108 52 -0.121916 -0.983781 0.131573 
0.089745 0.0100921 -0.0219321 133 125 52 0.0331411 -0.147421 0.988518 
-0.0562877 -0.00814798 -0.0119834 144 131 59 -0.376623 -0.600294 0.705551 
-0.00429939 0.0114163 0.0102902 116 46 32 0.527862 -0.474576 0.704371 
-0.0181406 0.0215276 0.0172342 110 42 30 -0.138191 0.1606 0.977298 
-0.0399146 -0.0159434 0.00241055 131 124 51 0.159171 -0.468752 0.868871 
-0.0336306 0.0149945 0.019198 112 44 31 -0.00364657 0.283217 0.959049 
-0.0323373 0.0173664 0.0183845 112 44 31 -0.156872 0.206138 0.965867 
0.0440964 0.0232351 -0.000540111 106 43 32 0.893983 -0.363227 0.262413 
0.0216771 0.00480487 0.00516199 86 47 34 0.355565 -0.894121 0.272253 
-0.0176862 0.00516079 0.0126146 104 50 37 0.169477 -0.42152 0.890841 
-0.0274767 0.0317093 0.017091 23 20 19 0.0217614 0.352022 0.935739 
-0.0639584 0.00511347 0.043931 93 39 28 -0.219592 -0.643203 0.733532 
0.0442682 -0.00179714 -0.000692621 155 146 58 0.522193 -0.260317 0.812127 
0.00326152 -0.0174344 -0.0115188 193 167 66 0.717687 -0.322392 0.617243 
-0.0730042 -0.0104299 -0.0190932 73 73 41 -0.293908 -0.498229 0.815712 
-0.0473317 -0.017376 0.000867255 118 102 48 -0.616012 0.094659 0.782029 
0.0273789 -0.0155392 -0.00770847 170 143 60 -0.880247 -0.392725 0.266331 
0.03114 -0.0255842 -0.0292607 127 103 54 0.402889 0.907546 0.118497 
0.0343748 0.00906072 0.00461776 89 48 32 0.102134 -0.14539 0.984089 
0.0544556 0.022525 0.0356302 96 40 30 0.0244871 0.362151 0.931798 
0.0592756 0.0157563 0.0067746 96 58 37 -0.648834 -0.758171 0.0647395 
0.0331432 -0.00100974 0.00269555 42 44 37 0.0961616 -0.438998 0.893327 
0.0003447 0.011261 0.00602448 118 46 32 -0.576407 -0.733164 0.360867 
0.0562037 0.000646867 -0.00480492 172 156 60 -0.242216 0.123051 0.962388 
-0.0764361 0.028421 -0.0309882 40 43 35 -0.559835 0.613958 0.556453 
0.0359182 -0.0250008 -0.0123364 80 73 35 -0.136748 -0.716799 0.683739 
0.0222574 0.0248781 0.025373 47 64 139 0.155299 0.625719 0.764433 
0.027186 -0.0169179 -0.0108211 168 144 60 -0.8718 -0.216087 0.439626 
-0.0283959 -0.0112036 0.00102374 150 142 60 0.454993 -0.548325 0.701656 
0.00737437 -0.0206274 -0.0217763 176 155 63 0.660062 -0.552571 0.508903 
0.0100884 0.00373642 0.0306672 118 48 33 0.0526075 -0.972628 0.226335 
0.0442394 0.0186738 0.0364826 107 43 31 -0.621255 -0.597685 0.506769 
-0.0739358 -0.014864 -0.0225772 42 45 30 -0.414454 -0.798268 0.437031 
-0.00573297 0.00290903 0.00367521 78 54 41 0.694388 -0.602023 0.394201 
-0.0635699 -0.0142137 -0.0197032 161 145 59 0.210166 -0.845199 0.491395 
-0.027619 0.0124691 0.0237091 115 44 32 -0.958847 0.261504 0.110586 
-0.0683082 -0.0113261 -0.0159608 160 143 60 -0.576704 -0.502724 0.643958 
-0.0212218 -0.0110108 -0.000992233 144 134 59 -0.451354 -0.759916 0.467767 
-0.0584544 -0.0108206 -0.0151424 145 133 59 -0.006903 -0.768995 0.639218 
-0.0164573 -0.000268289 0.00953846 117 103 50 0.561247 -0.37471 0.737966 
-0.0369003 -0.0100921 0.00718956 155 142 61 -0.141973 -0.611233 0.778613 
-0.0258388 0.0289092 0.0176366 58 30 27 -0.00109968 -0.13526 0.990809 
-0.0209844 -0.00598599 0.005404 135 125 55 0.382779 -0.836442 0.39223 
-0.0518994 -0.0155366 -0.0135968 173 155 61 -0.680871 -0.638214 0.359303 
-0.0387154 0.00389079 0.0131489 103 53 37 -0.43414 -0.590497 0.68032 
0.0532661 -0.0199681 -0.0151606 146 128 55 0.504097 -0.344066 0.792152 
-0.0628057 -0.0136902 -0.019195 160 145 60 0.178463 -0.865768 0.467544 
0.0583513 -0.0241363 -0.0225364 132 111 53 0.363698 -0.8027 0.472648 
0.00071021 0.00945803 0.0159593 116 46 33 0.504598 0.853599 0.129421 
0.065849 0.00379099 -0.000320885 151 140 56 0.0679186 0.170392 0.983033 
-0.0260306 0.0326804 0.0180424 19 20 18 -0.189091 0.351169 0.91702 
-0.0633129 -0.0105783 -0.0132126 145 134 57 0.0206143 -0.551089 0.834192 
0.0198332 0.00560319 0.0131169 94 47 32 0.606027 -0.753992 0.25343 
-0.0670039 -0.011797 -0.0150893 151 138 57 -0.427218 -0.482871 0.764409 
-0.0329643 -0.0184801 -0.00085517 157 145 60 0.522968 -0.48621 0.700075 
0.0152832 0.00854672 0.0363035 51 57 94 0.377134 -0.506622 0.775309 
0.0434726 0.0204406 0.0403764 104 43 30 -0.61101 -0.780487 0.132311 
-0.0297597 0.0165412 0.0195359 114 44 32 -0.113307 -0.220249 0.96884 
-0.0676765 -0.0134431 -0.0172527 159 143 58 -0.489456 -0.650926 0.580283 
0.0562321 0.0187792 0.0346452 94 40 29 0.226894 -0.544855 0.80725 
0.0537828 0.0173964 -0.00436231 93 54 34 -0.86392 -0.475377 0.166308 
-0.0542622 -0.00356504 -0.00211953 143 130 55 0.312337 -0.65866 0.684553 
-0.020847 -0.0257401 -0.0180794 171 158 63 -0.411185 0.0330534 0.910953 
-0.0499951 -0.00691647 -0.00379524 144 131 58 -0.342219 -0.178855 0.922441 
0.0199476 0.0215473 0.0294209 38 65 144 0.300874 0.658061 0.69024 
-0.0171188 0.00177967 0.0107701 102 73 43 0.432233 -0.308295 0.847425 
-0.0333577 -0.00121453 0.0117199 126 113 53 -0.240131 -0.339095 0.909589 
0.0512182 -0.013554 -0.0118391 179 161 63 0.777085 -0.177924 0.603724 
-0.000722236 -0.0205105 -0.00952684 187 166 66 0.558192 -0.254861 0.7896 
-0.0120818 -0.0226291 -0.00389484 166 150 61 -0.199119 -0.0902838 0.975808 
-0.0601566 -0.00589028 -0.00942539 130 120 52 -0.0752105 -0.841506 0.534988 
-0.0247582 0.0101892 0.0151305 120 46 34 0.436163 -0.0557092 0.898142 
0.0320486 0.00863182 0.00475381 83 45 34 0.171907 -0.182247 0.968108 
0.0444301 -0.0266172 -0.0116701 128 107 51 0.484624 -0.659022 0.575177 
0.0424821 0.00598228 0.00269555 168 148 58 0.380889 -0.431886 0.817556 
-0.0481078 -0.0148076 -0.00475957 147 128 52 -0.919118 -0.198073 0.340572 
-0.0667397 -0.0164404 -0.0212329 167 147 62 -0.120561 -0.88648 0.446786 
-0.0017253 0.0143312 0.0455204 106 42 31 -0.0290336 -0.074197 0.996821 
-0.0467389 -0.0229725 -0.0072104 105 92 44 -0.458536 -0.204624 0.864797 
-0.0285715 -0.0289282 -0.0162879 168 156 63 0.739804 -0.22679 0.633448 
0.0366444 0.0159571 0.00612851 112 47 33 0.334311 -0.233005 0.913206 
0.0160465 0.0311533 0.0194056 68 53 107 -0.159681 0.698034 0.698034 
0.0484571 -0.0275605 -0.0160754 132 112 56 0.615555 -0.585198 0.527859 
-0.0367092 -0.0161071 0.00116061 152 140 59 0.192452 -0.481875 0.854844 
0.0329412 0.00533876 0.00482934 54 40 32 0.050895 -0.116493 0.991887 
-0.0217231 -0.0315827 -0.0221865 156 147 64 -0.0637268 -0.97995 0.188776 
-0.0630361 0.00383509 0.0164793 99 61 38 -0.970377 -0.107539 0.216342 
0.0878969 0.00472136 -0.026419 131 127 52 0.35113 -0.632033 0.690827 
0.0347721 -0.00108423 0.00207339 56 55 37 0.15007 -0.256315 0.954872 
-0.0387284 0.00509442 0.0142406 112 51 36 -0.481759 -0.569046 0.666405 
0.0215969 0.00583826 0.00915346 91 46 34 0.552253 -0.798045 0.241125 
0.0141601 0.0252669 0.0260416 36 63 140 0.0377026 0.814097 0.579503 
0.0395185 -0.0197725 -0.00562653 148 136 55 0.0294249 -0.339026 0.940317 
-0.0662251 0.00629859 0.0414759 85 37 28 -0.628768 -0.741665 0.233632 
-0.0155878 -0.00814898 -0.000639732 139 127 53 -0.277675 -0.402098 0.872476 
-0.00383023 -0.0268052 -0.0104382 159 143 62 0.612842 -0.481878 0.626274 
-0.0466439 0.0154483 0.0221656 113 44 31 0.3815 0.185711 0.905522 
0.0253455 -0.0156044 -0.0115413 179 154 61 -0.481878 -0.612842 0.626274 
-0.0337204 0.00604397 0.0158784 119 48 34 -0.134076 -0.555458 0.820664 
-0.0447258 -0.00362102 0.00307682 90 82 39 -0.271991 -0.283504 0.91959 
-0.0099309 -0.0183715 -0.00362045 151 140 58 0.278915 -0.0437759 0.959318 
-0.0321056 -0.0103286 0.00532781 147 137 57 0.303377 -0.792592 0.528924 
0.0233204 0.00180861 -0.0156103 45 49 44 0.936656 0.35014 0.0088483 
0.0416944 -0.00114226 0.00104218 170 150 59 0.239742 -0.142797 0.960277 
0.0134397 0.00208949 -0.00878358 82 60 39 -0.152343 -0.644064 0.749649 
0.0627697 0.0107381 -0.000829114 163 146 56 0.0823821 -0.784798 0.614252 
0.00580896 -0.0219026 -0.0192419 175 153 63 0.790667 -0.399376 0.464052 
-0.0166422 -0.00295435 0.00830343 129 116 52 0.367606 -0.483185 0.794606 
0.0352748 -0.0233479 -0.0562626 114 91 57 -0.163713 -0.985764 0.0383159 
-0.0754684 0.0141013 -0.0220495 62 64 39 -0.600618 0.450045 0.660847 
-0.0726607 -0.0173998 -0.0429616 21 24 24 -0.625522 -0.780176 0.00690421 
-0.0610173 -0.018378 -0.0434302 170 154 64 0.23097 -0.947115 0.22277 
-0.0184065 -0.0226573 -0.0164267 178 159 63 -0.519454 0.348983 0.779986 
-0.0486937 0.0230642 0.0120283 103 43 31 -0.0708333 0.660629 0.747364 
0.0304573 -0.0250501 -0.0144185 145 118 53 -0.284225 -0.763755 0.579564 
0.024383 0.00446375 2.72248e-05 76 47 36 -0.398293 -0.529418 0.749053 
0.0232947 0.0337858 0.0214936 95 42 45 -0.47037 -0.128021 0.873134 
-0.0786264 0.0101822 -0.0206528 23 26 24 -0.613212 0.267785 0.743143 
-0.0201106 0.0227092 0.0170295 106 43 29 -0.0402764 -0.0794642 0.996024 
0.0596587 0.0073794 -0.0103245 159 148 59 -0.289843 0.230461 0.928913 
-0.0401123 -0.0276987 -0.00273916 117 110 51 0.087968 -0.883869 0.459388 
0.00568674 0.00388148 0.0370235 114 46 33 0.453424 -0.526503 0.719167 
0.000641336 -0.00893602 -0.0069367 165 151 60 0.617473 -0.119941 0.777394 
0.0353326 -0.0137134 -0.00270644 89 79 38 -0.324307 -0.29469 0.898879 
0.0682624 0.00694892 -0.00164808 131 122 51 -0.157768 -0.0333961 0.986911 
-0.0127537 0.0333319 0.0185196 28 25 23 -0.184031 -0.189251 0.964529 
0.0477938 -0.00303609 -0.00354992 157 146 58 0.489017 -0.0120579 0.872191 
0.0359356 -0.0237221 -0.00872436 81 73 37 -0.387145 -0.859123 0.334703 
-0.0598394 0.00935994 0.0449661 116 46 33 -0.554593 -0.671878 0.490924 
-0.0264687 -0.0272658 -0.0178013 169 157 62 0.412631 -0.201176 0.888405 
-0.0720111 0.0202816 -0.0180492 54 56 38 -0.915302 0.0248794 0.402 
-0.0354634 0.0215417 0.0190598 108 43 31 -0.140841 -0.133493 0.980991 
-0.0327143 -0.0270819 -0.00922586 169 152 64 0.712432 -0.0984185 0.694805 
-0.0115503 -0.0182884 -0.00299106 155 143 58 -0.181053 -0.363532 0.913819 
-0.000258146 0.031005 0.0168288 100 43 32 0.0543108 -0.0372721 0.997828 
0.00667526 -0.00827032 -0.0098315 159 148 61 0.429175 -0.276444 0.859877 
-0.0158131 0.00909463 0.013842 122 47 35 0.146258 -0.280439 0.948663 
-0.00378549 -0.00844618 -0.00356267 148 146 62 0.462052 -0.410173 0.786299 
0.00850389 0.00247755 -0.00986182 53 48 40 0.350642 -0.250878 0.902281 
0.00105747 -0.0112803 -0.00721198 172 157 63 0.548623 -0.14344 0.823673 
-0.03303 -0.0233567 -0.00831401 163 146 61 0.680443 -0.329666 0.65446 
0.0380829 -0.0156106 -0.0031165 112 109 47 0.0729487 -0.576438 0.813878 
-0.0204411 -0.0318428 -0.0248772 152 149 65 0.139432 -0.962995 0.23065 
-0.0282711 0.0283387 0.0182462 55 30 26 -0.0144881 -0.13485 0.99076 
0.0860483 0.000637712 -0.0251682 136 131 54 0.810549 -0.334688 0.480619 
0.0349325 0.0294385 0.0215608 106 42 30 0.302211 0.175255 0.936992 
0.0354017 -0.0123574 -0.00208022 89 79 39 -0.3236 -0.196421 0.925582 
-0.0125478 0.0151985 0.0171041 116 45 32 0.182603 -0.816432 0.547809 
0.0221844 0.00160035 -0.00206621 54 47 43 -0.852931 -0.221913 0.472508 
-0.0423538 -0.026763 -0.0019742 103 93 45 -0.352353 -0.786761 0.506809 
0.0409394 -0.0213426 -0.00639367 170 149 58 0.135169 -0.372063 0.918313 
-0.0143451 -0.0151494 -0.00146172 146 131 57 0.0298247 -0.366974 0.929753 
0.0104722 -0.0103895 -0.0179034 173 160 63 0.618453 -0.362541 0.697195 
-0.0024403 0.00876633 0.0445463 108 42 32 0.0181825 -0.67555 0.73709 
-0.00114533 0.00744518 0.0411255 107 44 32 -0.348205 -0.896444 0.274119 
-0.0388064 0.0286846 0.0157257 26 22 22 -0.69374 0.0924009 0.714274 
-0.0436331 0.0119332 0.014847 115 45 32 -0.392142 -0.666807 0.633714 
-0.0182441 -0.0201245 -0.0116342 160 144 60 -0.946286 -0.292097 0.138645 
0.0553811 0.00670245 -0.00608984 161 148 58 0.655381 0.110956 0.747104 
