ply
format ascii 1.0
comment VCGLIB generated
element vertex 686
property float x
property float y
property float z
property float nx
property float ny
property float nz
property uchar red
property uchar green
property uchar blue
element face 0
property list uchar int vertex_indices
end_header
0.00451919 0.00541475 0.0233627 0.271929 0.0596775 0.960465 63 35 39
0.0631409 -0.0156928 -0.0605748 0.0247484 -0.892942 0.44949 78 75 44
0.00115639 -0.0455405 0.0312241 -0.003554 0.0219614 0.999753 99 45 33
-0.0540041 0.0103494 -0.018238 -0.5461 -0.256221 0.797575 103 101 51
0.00488399 -0.0265583 0.0273259 0.0434813 0.071042 0.996525 49 29 27
0.00690769 -0.0604248 0.030738 0.177703 -0.225033 0.958009 24 20 17
0.0253317 -0.00920099 -0.0161881 0.726764 -0.209277 0.65423 80 72 35
-0.0164119 -0.0550227 0.0297221 0.084438 0.17477 0.980982 115 46 36
-0.0259923 0.0305924 0.0228528 0.170423 -0.0920421 0.981063 32 55 111
-0.00509166 0.0186612 0.0260325 0.155525 -0.28244 0.946594 35 61 131
-0.0306565 0.00876777 0.0253433 0.0762276 0.0600394 0.995281 40 64 129
0.00503609 -0.0117087 0.0269632 0.559632 0.133915 0.81785 53 34 34
0.00472329 -0.0583847 0.0313903 0.23408 -0.171424 0.956985 35 24 22
0.0203956 -0.0192877 -0.0151643 0.429482 -0.0492906 0.901729 60 53 27
-0.0336879 0.0191372 0.0262351 0.407523 -0.0534662 0.911628 64 44 50
-0.0249453 -0.084399 0.0334645 0.32138 0.11291 0.940195 111 51 44
-0.0177642 -0.0305028 0.0283784 0.0821383 0.090727 0.992483 107 43 33
-0.00302621 -0.0905524 0.0297728 0.314375 -0.296521 0.9018 112 48 36
0.000759887 0.0601355 -0.0319796 0.208186 -0.202629 0.95687 27 26 20
0.0412767 -0.00924802 -0.0348774 0.621649 -0.354158 0.698659 103 93 41
-0.0367814 0.0523821 -0.0360998 -0.62158 -0.31241 0.718358 81 71 41
-0.016729 0.0328109 0.021146 0.39473 0.203857 0.895896 34 54 111
0.0514469 0.00470025 -0.0312871 -0.11882 -0.260759 0.958064 128 114 47
0.0262496 -0.0246581 -0.0173636 0.55729 -0.358333 0.749016 87 85 45
-0.0111428 -0.050582 0.0298607 -0.397766 -0.141333 0.906536 110 42 31
-0.00285361 -0.0203111 0.0283717 0.0921168 -0.308138 0.946871 94 42 34
-0.0206198 -0.0915981 0.0304945 0.252533 -0.265565 0.930431 101 44 36
0.00171239 -0.091883 0.0259109 0.521867 -0.0285336 0.85255 92 56 37
0.00356389 0.0196498 0.0216094 0.387775 0.0320736 0.921196 54 36 60
-0.0485658 -0.00406388 -0.0151672 -0.323056 -0.029481 0.945921 121 115 54
-0.0186867 -0.0369949 0.0277271 0.0805008 0.123526 0.989071 109 43 33
0.00908759 0.0807586 -0.03853 -0.107978 -0.000804214 0.994153 42 43 28
0.0561552 -0.00998542 -0.0401736 0.484909 -0.765384 0.423144 112 97 44
0.00488369 0.0820526 -0.0365941 0.408253 -0.144174 0.901412 55 54 32
-0.00727621 -0.0927682 0.0289279 -0.204572 -0.414833 0.886602 101 43 33
0.0130087 0.0286995 -0.00779014 0.650069 0.286663 0.703729 18 18 17
0.0640914 0.0331301 -0.0354662 0.268287 0.263345 0.926645 50 49 28
0.00337049 0.0274304 0.021975 0.393205 -0.0399316 0.918583 54 39 71
0.0587537 -0.00412377 -0.0347033 0.317282 -0.594894 0.738534 119 110 45
0.0230739 0.0401918 -0.0116967 0.0132355 -0.304607 0.952386 65 65 37
-0.0179422 0.0216525 0.0234907 -0.180512 0.287597 0.940587 36 57 118
-0.0190687 -0.0398688 0.0290799 0.153345 0.310206 0.938221 107 41 31
0.00190569 0.0832308 -0.034129 0.703666 -0.0983677 0.703689 59 58 33
-0.00978624 0.0601625 -0.0275489 0.513692 0.288912 0.807868 54 50 27
0.00721739 -0.0513042 0.0310689 0.211359 -0.0454875 0.976349 22 19 17
-0.00172571 0.0419323 0.0113692 -0.195153 0.729373 0.655691 53 33 31
0.00705779 -0.0069736 0.0250134 0.378324 0.252348 0.890613 22 20 22
-0.0451475 0.0333918 -0.014161 0.147868 -0.255566 0.955417 86 84 46
-0.0249317 0.00217591 0.0256384 -0.119032 0.195599 0.973433 34 57 120
0.00229249 -0.047682 0.0313488 -0.0392604 -0.0403401 0.998414 94 42 32
-0.000997612 0.0280023 0.0243539 0.132609 0.567868 0.812368 33 55 117
0.00891079 -0.0347933 0.0286805 0.326067 0.513841 0.793504 22 18 16
0.0495358 0.0372342 -0.0429069 -0.0423329 0.556727 0.829616 38 38 25
-0.0156212 -0.00826154 0.0302618 -0.223696 0.263437 0.938382 39 65 137
0.018739 0.0532478 -0.0153007 -0.531234 0.691877 0.488975 15 16 17
0.00518489 0.0203821 0.0208557 0.284025 -0.159727 0.945419 56 32 34
0.0166311 0.0206737 -0.00802099 0.46717 0.181713 0.865293 40 37 25
0.00176789 -0.0482293 0.0312949 -0.00361576 0.0225766 0.999739 100 44 31
-0.0117309 0.0687474 -0.0256007 0.118763 -0.218347 0.968618 111 101 44
-0.0249878 0.0349981 0.0234462 0.206143 0.108973 0.972435 27 40 82
-0.0147171 0.047433 0.0005122 -0.211641 0.626221 0.75037 73 54 40
-0.00578358 0.0830106 -0.0313416 0.165325 0.300067 0.939483 77 72 37
0.0304399 0.0454874 -0.0110051 0.0198387 -0.458734 0.888352 15 16 18
-0.0149862 0.0195023 0.0263891 -0.0837042 -0.14012 0.98659 35 60 123
-0.0123249 -0.06414 0.0306595 -0.0171617 0.208019 0.977974 109 44 33
0.0441738 0.020149 -0.0322061 -0.165788 0.605117 0.778683 71 66 32
-0.0264592 -0.0902197 0.0319603 0.662106 -0.457423 0.593617 106 70 75
0.0262728 -7.41483e-05 -0.0149021 0.72621 -0.0839238 0.682331 61 58 31
0.0244911 -0.0231045 -0.0162054 0.246049 -0.156123 0.956601 62 63 34
0.00764329 0.0296885 0.016584 0.929706 -0.162549 0.330491 21 21 23
-0.0530515 0.020677 -0.016489 0.0675094 -0.0363777 0.997055 82 78 59
-0.0195321 0.070681 -0.0267257 -0.0858318 -0.304784 0.948546 126 113 48
0.00511869 0.0741694 -0.0343916 0.723421 -0.1189 0.680092 57 56 34
0.0161052 0.0424384 -0.0118763 0.271461 -0.25611 0.927748 44 39 27
-0.00896759 0.0734733 -0.0274419 0.249968 0.517712 0.818224 106 92 41
0.0158574 -0.0207238 -0.0137471 0.361964 0.213363 0.907446 23 21 18
0.0179308 0.0383286 -0.0117131 -0.00790823 0.0450168 0.998955 64 52 27
0.0142815 -0.000755438 -0.00824369 0.18894 -0.154634 0.969737 23 22 18
-0.0160211 0.0162589 0.0257099 -0.112804 0.0121663 0.993543 34 56 119
-0.0231089 0.0610651 -0.0327744 -0.33352 -0.655178 0.677869 108 97 44
-0.00159641 -0.0608232 0.0330654 -0.138018 -0.0270114 0.990061 101 44 33
-0.0313091 0.0125948 0.0256766 0.0269544 -0.0680266 0.997319 40 61 117
-0.0261656 0.0682979 -0.0300527 -0.654354 -0.326411 0.682112 123 112 48
-0.00390657 -0.0224271 0.0276112 0.100896 -0.121612 0.987436 100 42 34
-0.0553011 -0.000906363 -0.0178026 -0.570906 0.329585 0.751957 100 89 50
0.0119224 0.0632739 -0.0369298 0.387987 0.270897 0.880954 31 32 24
-0.00977802 -0.00321534 0.0304563 -0.0944856 0.425506 0.90001 37 63 132
-0.0174594 -0.0223196 0.0285523 0.121068 -0.183824 0.975475 105 42 34
0.0441358 -0.00629663 -0.0342941 0.144225 -0.509595 0.848241 101 91 41
0.0658817 0.0389528 -0.0374045 0.347754 0.421137 0.837682 23 25 22
0.0363405 0.0316226 -0.0337092 0.663235 -0.109414 0.74037 24 23 19
0.0414161 0.00717241 -0.0295473 0.238559 -0.177432 0.954781 106 94 39
-0.0219695 -0.0497663 0.0297732 0.149896 0.120821 0.981292 89 38 31
-0.0220053 -0.013823 0.029767 -0.146706 -0.0150486 0.989066 37 54 103
0.0670903 0.0252024 -0.0343879 0.293646 0.11191 0.949341 42 46 28
-0.00347821 -0.0766028 0.0279063 0.790686 -0.427671 0.438079 112 44 31
0.00718109 0.0257752 0.0162997 0.87998 0.0469107 0.472689 23 20 24
-0.0255453 -0.0828108 0.0332406 0.178667 0.164914 0.969991 117 50 42
0.0347496 0.0122903 -0.0217886 0.773714 9.08226e-05 0.633535 21 23 18
0.0599173 -0.00922211 -0.0453487 0.598148 -0.773663 0.20896 106 93 42
-0.0137867 -0.0143249 0.0307939 -0.110638 -0.160261 0.980855 48 57 98
0.023352 0.0529676 -0.00814304 -0.275025 -0.750125 0.601393 17 18 18
-0.0168341 -0.0419937 0.0291585 0.148819 0.194986 0.96945 112 44 33
-0.0301275 0.025609 0.024933 0.603331 0.097312 0.791532 38 61 127
0.00848129 0.0197095 0.0187662 0.872206 -0.205623 0.443819 18 17 20
0.0334036 0.043059 -0.0132149 0.415362 -0.56722 0.711151 16 17 19
-0.00590981 -0.0269955 0.0288032 -0.139434 -0.35194 0.925579 100 42 32
0.00865029 -0.0442558 0.0310393 -0.0099559 0.251244 0.967872 19 17 17
-0.0190485 -0.0703062 0.0320583 0.210262 0.146834 0.966556 100 40 31
-0.0218823 -0.0810953 0.0328224 0.178942 0.0618277 0.981915 113 47 36
-0.0407158 -0.0225782 -0.0191158 -0.468811 -0.439503 0.766194 143 127 56
-0.0152107 0.0811911 -0.029622 -0.0391261 0.396181 0.917338 106 93 43
-0.0223645 -0.0827057 0.032854 0.184071 -0.096714 0.978143 114 47 39
0.058322 0.0119065 -0.0308699 0.078813 -0.082396 0.993478 121 107 43
0.0430652 0.0125264 -0.0294343 0.360581 -0.107637 0.926496 91 79 35
0.00179359 0.0870767 -0.0347862 0.499907 0.197461 0.843269 38 39 27
0.0483225 0.0330508 -0.0401114 -0.0754297 0.74234 0.665764 49 45 28
-0.0103192 -0.0248883 0.0285773 -0.411328 -0.605842 0.681003 100 41 33
0.0296362 0.0308904 -0.0145193 0.232595 -0.0822292 0.969091 19 20 19
0.00120339 0.0271231 0.0233381 0.618652 0.00498691 0.785649 33 52 109
-0.0483242 -0.0287726 -0.0225047 -0.0608225 -0.102778 0.992843 117 110 59
-0.0403058 -0.0085453 -0.0150949 -0.167549 -0.192102 0.966967 93 86 42
0.0222267 0.0520922 -0.00963252 -0.0749973 -0.362348 0.929021 17 16 17
0.00176849 -0.0752054 0.02463 0.304998 -0.712182 0.632277 82 40 32
0.0154898 -0.0293488 -0.0138712 0.282761 -0.498542 0.819452 20 19 17
-0.0168692 -0.0961975 0.0279245 0.48142 -0.212029 0.850458 87 61 39
-0.0133185 -0.0506016 0.0294692 0.0462858 -0.202823 0.978121 108 42 33
-0.0304431 0.0816081 -0.0349034 -0.567864 0.0736378 0.819822 112 104 45
-0.0200568 -0.0421134 0.0295501 0.0761922 0.0154543 0.996973 95 37 29
0.0611961 0.037752 -0.03795 -0.414049 0.632127 0.654965 38 38 26
-0.0224145 0.0633723 -0.0294507 -0.479817 -0.270328 0.834684 113 105 47
0.0717841 -0.0125153 -0.0649337 0.514348 -0.4082 0.7542 61 64 41
0.000467587 0.0145706 0.0246439 0.442008 0.0104143 0.89695 35 55 115
0.0169459 0.0311905 -0.0112879 0.0144408 0.347354 0.937623 40 33 20
-0.0292369 -0.0291122 0.0281458 0.014663 -0.149264 0.988689 105 45 32
-0.0114892 -0.0196532 0.0301526 -0.265748 -0.452452 0.851272 99 42 34
-0.0192258 0.0777727 -0.0284109 -0.0923438 0.417053 0.904179 121 105 43
0.0658692 0.0351016 -0.0361651 0.26706 0.0531908 0.962211 30 34 24
-0.0459859 -0.0276209 -0.021879 -0.0120494 -0.144566 0.989422 97 97 51
-0.0469005 0.0361011 -0.0131026 0.0227729 -0.110747 0.993588 99 93 49
0.00105709 0.032724 0.023383 0.181491 0.0188599 0.983212 33 51 105
-0.000739112 0.000324302 0.0267215 0.0799046 -0.0197363 0.996607 40 54 77
-0.0348693 -0.0289511 0.0256677 -0.629451 -0.0690306 0.773968 133 119 52
-0.00395253 -0.0193018 0.0288246 0.192764 -0.384765 0.902661 98 42 33
-0.00618766 -0.0522082 0.0313572 -0.0308074 0.074863 0.996718 113 43 32
-0.00118871 0.0150651 0.0247984 0.248816 -0.0704253 0.965987 35 57 117
-0.00567556 0.0414789 0.0104216 -0.291838 0.747283 0.596991 64 34 32
-0.0247463 -0.046112 0.0304448 0.444495 0.158389 0.881667 111 44 34
0.0423502 -0.00584708 -0.0335509 0.28018 -0.358328 0.890562 104 97 44
0.00221649 -0.0653917 0.0309835 0.0787086 -0.0503113 0.995627 83 40 31
-0.0045903 -0.0516295 0.0313623 -0.149365 0.0440716 0.987799 105 44 30
-0.0148795 0.0286319 0.0225364 0.0741972 0.271282 0.959636 35 58 118
0.0196358 -0.0109517 -0.0127882 0.569577 -0.196888 0.798008 64 66 33
-0.00563914 -0.0527238 0.0312546 -0.0417064 0.0227006 0.998872 111 42 31
-0.0207092 0.00780502 0.0257364 -0.0401086 0.023376 0.998922 36 59 124
-0.0356256 0.0558368 -0.0350437 -0.326867 0.0142841 0.944962 101 93 45
-0.0509003 -0.019598 -0.0216127 -0.515023 -0.113914 0.849573 79 70 59
0.0297657 -0.000661345 -0.0182789 0.657559 -0.142365 0.73983 84 83 40
-0.000349013 -0.072273 0.0286299 0.421106 -0.54388 0.725855 107 45 33
0.070086 0.0285716 -0.0361312 0.219998 0.276001 0.935641 18 20 20
-0.0267669 0.00721055 0.0251797 0.0218771 -0.0515865 0.998429 37 62 131
-0.0223097 -0.0693103 0.031875 0.0233596 0.339065 0.940473 106 47 37
0.0563204 -0.00199321 -0.033388 0.235577 -0.463772 0.85406 128 115 47
-0.0191551 -0.00357267 0.0278306 -0.0818393 0.386731 0.918554 39 65 134
0.0179826 0.0360473 -0.0120488 0.154004 -0.182577 0.971055 49 43 25
-0.0409718 -0.00457277 -0.0144817 -0.102766 -0.371081 0.922897 51 44 29
0.00730999 0.057833 -0.034758 0.147319 -0.484623 0.862228 17 19 18
0.0263858 -0.0301207 -0.0201431 0.611111 -0.279151 0.740687 74 68 37
0.0163345 0.00868457 -0.00919735 0.551646 0.0118413 0.833995 31 28 20
-0.00823658 -0.0185839 0.0308999 0.235008 -0.312062 0.920537 103 43 35
0.00174439 -0.0690707 0.0297321 0.324494 -0.600207 0.731064 92 41 32
-0.036049 0.0297431 0.0289312 0.49391 -0.0235912 0.869193 83 63 43
-0.0121649 -0.0912891 0.0284074 -0.104227 -0.632455 0.767553 113 47 36
0.0523808 -0.0071777 -0.035127 0.0555656 -0.60694 0.792803 113 100 42
-0.0398025 -0.00347878 -0.0138134 -0.266395 -0.51874 0.812369 87 76 38
0.0441857 0.0162268 -0.0301244 0.0342581 0.0628438 0.997435 82 75 36
0.0380442 0.040408 -0.0385263 0.636897 0.575895 0.512549 17 17 19
0.0315786 -0.00318308 -0.0207336 0.86014 -0.00378381 0.510044 65 69 35
-0.047542 0.000577202 -0.0148258 -0.540324 -0.0603867 0.839288 82 85 44
0.0553623 0.0328252 -0.0380779 -0.449268 0.705437 0.548195 52 51 26
-0.0144945 0.0444484 0.0036593 -0.136061 0.609915 0.780699 82 48 35
-0.0107292 -0.0635619 0.0306646 -0.0229358 0.104899 0.994218 114 46 35
-0.0239024 -0.0698873 0.0318699 -0.0985044 0.311445 0.945145 114 47 37
-0.0303084 0.0756794 -0.0357758 -0.739894 0.0701691 0.669054 120 110 50
-0.0209387 -0.0338151 0.0280525 -0.0854746 -0.147281 0.985395 90 37 30
-0.0327884 -0.0183726 0.0291337 0.0449471 -0.0678491 0.996683 93 44 33
0.0522307 0.0273229 -0.0312635 0.421413 0.518896 0.743746 67 62 32
0.0185842 0.0101043 -0.0105022 0.313348 -0.0316527 0.949111 72 66 34
0.0589867 0.0078212 -0.0312061 0.0829461 -0.115564 0.989831 121 109 45
-0.031654 0.0247301 0.0264337 0.548301 0.0368062 0.835471 40 59 108
-0.000108013 -0.0218416 0.0280118 0.0484736 -0.102455 0.993556 90 41 35
-0.00124611 0.0182313 0.0257787 0.479068 -0.048109 0.876458 34 56 115
-0.00942053 0.0853378 -0.0311245 0.136043 0.119986 0.98341 65 59 32
0.0226574 -0.0179487 -0.0162054 0.402373 0.110259 0.908812 77 75 37
0.0537417 -0.0102469 -0.0386034 0.361157 -0.667265 0.651401 109 99 45
-0.0297328 0.0606065 -0.0340309 -0.0813473 -0.167749 0.982468 109 98 47
-0.0175798 0.0651996 -0.0264261 -0.559921 0.187955 0.806946 115 105 46
0.0110887 0.0719021 -0.0399226 0.352881 0.516752 0.780027 42 43 27
0.051609 -0.0132928 -0.043122 0.411654 -0.883998 0.221561 102 92 42
0.00957099 0.0860475 -0.0374741 0.323038 -0.107192 0.940296 31 32 23
-0.0236784 0.0571777 -0.0345279 -0.320362 -0.23241 0.918343 72 66 35
-0.0212507 -0.0219257 0.0290503 0.0170581 -0.0948842 0.995342 87 37 32
-0.00599245 -0.02375 0.0290303 0.481119 0.231527 0.845529 103 41 32
-0.0350207 0.0686959 -0.0377917 -0.126245 0.0398505 0.991198 111 103 47
-0.0344954 0.0305313 0.027939 0.643646 0.0829475 0.760815 65 45 44
0.0269414 0.0219942 -0.0142617 0.47548 0.0514112 0.878223 47 47 29
0.0588279 0.0160292 -0.0305865 0.130534 -0.0488402 0.99024 110 93 38
0.00905539 0.0820194 -0.0386529 0.199119 -0.132682 0.970952 43 43 29
-0.024495 0.0192786 0.0234697 -0.112012 0.157272 0.981182 32 53 114
-0.0172485 -0.029922 0.0281866 0.156186 0.1563 0.975283 109 43 34
-0.0169915 0.011798 0.0256218 -0.0475519 -0.0116277 0.998801 33 58 124
0.0195397 -0.00661672 -0.0107532 0.692223 -0.257395 0.674222 85 79 37
-0.032386 -0.0114055 0.0303839 0.35983 -0.20889 0.909334 84 49 42
0.0549045 0.0071213 -0.0311054 -0.039852 -0.0194371 0.999017 127 114 47
0.0160791 -0.00465301 -0.00890215 0.144752 -0.055233 0.987925 31 28 21
-0.00339211 -0.0208319 0.0280705 0.099065 -0.295566 0.950172 97 42 33
0.00175719 -0.071118 0.0282011 0.319272 -0.506445 0.800986 88 41 33
-0.0179511 -0.0409316 0.0291191 0.193279 0.174947 0.965421 111 44 33
-0.0181051 -0.0836145 0.0320229 -0.0483282 -0.146921 0.987967 106 43 33
-0.0132582 -0.0933933 0.0266802 0.0707786 -0.486166 0.870995 95 41 31
-0.0243914 -0.0880368 0.0319335 0.39512 -0.357059 0.846398 117 51 41
0.0233721 -0.0243043 -0.0160448 0.296566 -0.0985765 0.949911 76 71 37
-0.0282256 -0.00988442 0.0281216 0.028176 -0.153659 0.987722 41 67 137
-0.0048138 0.0272481 0.0249504 -0.166395 0.48214 0.860148 36 58 119
-0.020725 0.0717491 -0.0262099 -0.10209 -0.0942107 0.990304 130 114 46
0.0403585 0.00254968 -0.0304632 0.453495 -0.240606 0.858167 109 96 41
-0.0169546 -0.0930116 0.028148 0.51762 -0.182566 0.835906 99 42 32
0.04357 -0.00685522 -0.034642 0.16975 -0.589032 0.79008 99 91 41
-0.00965973 -0.0791514 0.0324988 0.0668554 -0.166987 0.98369 116 45 35
0.0569696 -0.00363526 -0.0342489 0.134551 -0.431841 0.891857 127 113 48
-0.0217019 -0.00764636 0.0288852 -0.0821553 0.422394 0.902682 36 57 116
0.0157188 0.0345726 -0.0107331 0.650186 -0.0404144 0.7587 31 26 18
-0.000896613 -0.0748202 0.0260602 0.400887 -0.743047 0.535883 111 44 35
-0.0195268 0.019877 0.0238292 -0.129851 0.310306 0.941726 37 60 127
0.0184743 -0.0100027 -0.0114739 0.616353 -0.35884 0.700958 67 63 31
0.00950139 -0.0566324 0.0311629 0.289898 0.0483804 0.955834 23 20 17
0.0629452 0.0281541 -0.0346434 -0.0691461 0.200245 0.977303 73 68 33
0.00633939 -0.0194716 0.0277855 0.27143 -0.0762161 0.959436 28 23 22
0.00419679 0.0641587 -0.0333761 0.383767 0.0475056 0.922207 61 59 35
-0.032464 0.0300016 0.0251715 0.687722 -0.00413103 0.725962 41 55 99
-0.0180973 -0.0175367 0.0295344 -0.127979 -0.187802 0.973833 95 44 41
0.0493909 0.0192823 -0.0299369 -0.0869311 0.0434892 0.995265 95 82 37
0.00741829 -0.00155881 0.0222003 0.580494 -0.0141498 0.814142 22 20 22
-0.0164183 0.0112288 0.0257671 -0.15205 0.0864823 0.984582 33 57 122
-0.00115581 0.0139357 0.0248889 0.304517 0.0493229 0.951229 35 57 117
0.0180973 0.0311722 -0.0110645 0.0516429 0.346418 0.936657 57 48 25
0.00756979 -0.00627008 0.0240698 0.579453 0.416551 0.700514 20 19 21
0.0308909 0.0279568 -0.017584 0.66433 -0.346704 0.662164 17 19 17
-0.000155712 -0.0558745 0.0319993 0.0073423 0.286095 0.958173 106 46 34
-0.0128841 0.0675441 -0.0257191 0.0474102 -0.163008 0.985485 115 100 44
0.0243648 -0.0171912 -0.0173067 0.376833 0.269167 0.88631 83 81 40
-0.00653718 0.071131 -0.0276052 0.589746 0.138685 0.795592 97 88 41
-0.0195268 -0.0957601 0.0286101 0.0662189 -0.197464 0.978071 72 39 32
0.0650615 -0.00398053 -0.0433323 0.503678 -0.714978 0.484887 124 107 45
-0.0099638 0.0834778 -0.0310656 0.107298 0.15529 0.982025 90 79 39
-0.0346603 0.0766448 -0.0375737 -0.142348 0.0183532 0.989646 110 103 47
-0.0144192 -0.0495669 0.029675 -0.164626 0.0618061 0.984418 108 45 34
-0.0183458 -0.0605417 0.0307445 0.111608 -0.0357972 0.993107 111 43 34
-0.0205158 -0.059542 0.0309983 -0.031002 -0.0690377 0.997132 87 37 30
-0.00997447 0.0178388 0.0269251 -0.343892 0.0462602 0.937869 35 60 127
-0.0468772 -0.00120021 -0.0145487 -0.246683 -0.117598 0.961935 78 79 43
-0.0465349 0.0189486 -0.0159127 -0.141011 0.159372 0.977096 97 96 48
-0.0407855 0.0790618 -0.0378443 0.376534 -0.356096 0.85523 92 87 46
0.0641152 0.0306838 -0.0352266 0.262449 0.0928903 0.960464 56 56 30
0.00188559 -0.0525453 0.0313995 -0.0240697 0.0047659 0.999699 96 44 33
0.000594688 -0.0867043 0.0291773 0.61569 -0.314774 0.722387 107 48 35
-0.020592 0.0627077 -0.0290373 -0.538178 -0.41324 0.734573 112 102 46
-0.0121673 -0.0881673 0.0303315 0.0983587 -0.470383 0.876964 118 46 34
0.0266577 0.00864367 -0.0147795 0.663659 -0.0617741 0.74548 56 51 27
0.0593268 -0.00352584 -0.0346445 0.446829 -0.51448 0.731884 123 112 45
-0.0277067 -0.00520464 0.0300461 0.247294 0.16541 0.954717 40 66 138
-0.0116801 -0.051109 0.0295626 -0.325218 -0.132828 0.936264 109 42 31
-0.0542022 -0.0132552 -0.0170843 0.486108 -0.739752 0.46526 83 85 85
-0.029003 -0.0177237 0.0290403 0.00931586 -0.0684833 0.997609 91 46 43
-0.0174885 0.0101122 0.0256573 -0.0519827 0.197352 0.978954 34 60 132
0.00302279 0.0639924 -0.032737 0.328611 0.231955 0.915539 66 62 35
-0.0344829 0.0705634 -0.0378534 -0.26832 0.0317841 0.962805 112 104 46
0.00697459 -0.0635906 0.0300265 0.361975 -0.240371 0.900664 28 22 17
0.0140465 0.0326038 -0.00980522 0.754487 -0.176165 0.63223 22 21 21
-0.00237081 -0.0537541 0.0316814 0.0347177 0.028001 0.999005 105 44 33
0.0662393 0.00498611 -0.0349259 0.53543 -0.579758 0.614162 111 101 43
0.0670775 0.037758 -0.0373378 0.369267 0.38476 0.845933 23 24 20
-0.0039285 0.0586301 -0.0310619 0.37853 -0.371077 0.847949 21 22 18
0.000694587 -0.0482609 0.0313437 0.0470935 0.143411 0.988542 104 44 33
0.00336579 -0.0476504 0.0313 -0.00645955 -0.0440043 0.99901 72 37 30
-0.00759979 0.0268645 0.0237378 -0.355881 0.458724 0.814199 36 60 119
-0.0169406 -0.0207249 0.0290114 0.0117921 -0.206699 0.978334 103 42 34
-0.00701196 0.084228 -0.0314063 0.132412 0.203797 0.970017 74 67 36
-0.0421597 0.000927022 -0.0124863 -0.68992 -0.0106356 0.723808 64 56 34
0.00742069 0.0175337 0.0182392 0.864005 -0.20173 0.461302 23 20 23
-0.0276343 0.0746984 -0.0314694 -0.681787 0.130767 0.719768 125 112 46
-0.0496506 0.0242254 -0.0161398 -0.0732258 -0.0637476 0.995276 98 96 50
-0.03623 0.0552914 -0.0353978 -0.500393 -0.0815821 0.861946 95 90 45
-0.0282094 0.0366731 0.0259342 0.374865 -0.344714 0.860609 48 44 44
0.0137873 0.0432867 -0.0104989 0.248004 -0.167983 0.954084 20 20 20
-0.0139666 0.0451385 0.00318338 -0.170604 0.641148 0.748213 85 53 36
-0.0151325 -0.0287275 0.027753 -0.056951 -0.0386378 0.997629 108 43 33
0.0126804 0.0410836 -0.0113342 0.314697 0.024981 0.948863 23 21 20
0.0525644 0.00705262 -0.0309991 0.0687861 -0.0928477 0.993301 128 110 45
-0.00987933 -0.0727155 0.0317405 0.0219661 0.0378163 0.999043 116 44 34
0.0108011 0.0474244 -0.0108846 0.783112 0.453028 0.426031 17 17 17
-0.0127226 -0.0928546 0.0269781 0.0320637 -0.587729 0.808422 102 42 32
-0.0324104 -0.0103311 0.030542 0.352668 -0.177341 0.91879 85 49 45
0.0251019 -0.0247884 -0.0164817 0.368834 -0.230193 0.90054 95 87 45
0.0694986 0.0229385 -0.0348382 0.19764 0.258188 0.945662 23 24 22
0.0290639 -0.0215026 -0.0190178 0.71185 -0.0840687 0.697282 70 71 38
-0.0397508 -0.00575685 -0.0141487 -0.403847 -0.319297 0.857297 67 56 31
0.0575866 0.0220426 -0.0311189 0.121107 0.26976 0.955281 89 82 37
-0.0339519 0.0600872 -0.0348108 -0.194973 0.000221491 0.980809 117 105 48
0.0487553 -0.00391674 -0.0335873 -0.055107 -0.244158 0.968168 127 114 46
0.0244855 0.00254949 -0.0133031 0.528205 -0.0323884 0.848499 56 61 33
-0.00567684 0.00276024 0.0280855 0.244916 0.00337691 0.969538 38 63 132
0.0153644 -0.0237318 -0.0127655 0.498126 0.100881 0.861216 21 19 17
0.0180545 0.00830034 -0.0101787 0.456259 0.0377955 0.889044 64 56 26
0.00283239 -0.0939751 0.0255497 0.412481 0.0395045 0.910109 95 73 41
-0.0335242 -0.0313871 0.0280267 -0.0767789 0.38082 0.921456 136 114 55
0.0586139 -0.0162509 -0.0670385 -0.00208433 -0.900083 0.435714 76 72 46
-0.00951408 0.0314289 0.0203236 0.0816431 0.450749 0.888909 34 55 112
-0.0121586 -0.0527658 0.0298403 -0.251014 0.222037 0.942174 109 41 31
-0.0492034 -0.0122733 -0.0191917 -0.430383 -0.496573 0.753781 140 129 59
-0.00332021 0.0137402 0.0257389 0.598864 0.0421503 0.799741 35 60 129
-0.00124851 -0.0196945 0.02813 0.082021 -0.15934 0.983811 92 42 35
-0.0371531 -0.0174253 0.0294889 0.0964859 -0.307479 0.946651 102 97 50
0.0482178 -0.00563515 -0.034106 -0.0411962 -0.27992 0.959139 123 111 47
-0.0269901 -0.0732034 0.0322747 -0.123084 0.235573 0.964031 111 51 45
0.0269064 0.0486903 -0.00979422 -0.346835 -0.400208 0.848256 14 16 18
0.0471103 0.0156379 -0.0297679 -0.0339573 0.0361796 0.998768 94 85 37
0.0392402 0.0376388 -0.0365739 0.485265 0.328936 0.810135 20 20 18
-0.0131953 0.014535 0.0263457 -0.253955 0.115673 0.960274 35 57 122
0.0360874 -0.0175958 -0.0305639 0.950477 -0.165634 0.262981 26 24 19
-0.0288543 -0.0454771 0.0339593 0.33998 0.462377 0.818915 110 46 38
-0.00236921 0.0429086 0.00938444 -0.108549 0.806646 0.580982 61 37 32
-0.00248381 -0.0713335 0.0298577 0.0535072 -0.356822 0.932639 109 44 32
0.0252617 -0.0313524 -0.0197015 0.677685 -0.329798 0.657249 81 76 38
-0.0492874 0.0147556 -0.0158145 -0.100174 -0.00201057 0.994968 107 104 50
-0.047872 0.0225534 -0.0164724 0.0694961 0.00368731 0.997575 113 105 50
0.00417089 0.0370269 0.0191465 0.175934 0.748635 0.639213 25 21 29
-0.0231343 -0.0465748 0.0300482 0.304956 0.0874196 0.948346 98 41 34
-0.0515089 0.0260492 -0.0166462 -0.25601 -0.196669 0.946457 84 82 56
-0.0170199 0.0273288 0.0232336 -0.0744217 0.135573 0.987968 33 57 119
-0.00474768 0.00835253 0.027838 0.575402 0.107675 0.810752 38 62 128
0.00335889 -0.0715576 0.0273156 0.465351 -0.686824 0.55832 47 30 26
-0.0436982 -0.0264071 -0.0218155 -0.0963234 -0.250061 0.963427 78 80 45
-0.0242904 -0.0601464 0.0306029 0.0134527 -0.00618141 0.99989 113 46 39
0.00479779 0.063653 -0.0337833 0.420281 -0.0105806 0.907332 57 55 32
-0.0351929 0.0736553 -0.0379838 -0.177287 -0.305802 0.935444 114 105 47
0.0216893 0.0504238 -0.0101338 0.180112 -0.147561 0.972515 16 15 18
-0.0420793 -0.00358613 -0.0134326 -0.0128334 -0.567143 0.823519 72 67 37
-0.0163031 0.062701 -0.0259589 -0.346979 -0.242182 0.906065 120 106 46
-0.02252 -0.0784337 0.0325112 0.077979 0.0767284 0.993998 115 47 38
-0.0137801 -0.0374402 0.0279201 -0.0237174 -0.156125 0.987452 110 40 29
0.0617788 0.0269 -0.034471 0.0366024 0.235122 0.971277 77 70 35
0.0194425 0.0226991 -0.00926632 0.302875 0.0551398 0.951434 40 43 27
0.0291469 0.000950292 -0.0174442 0.495976 -0.198951 0.845238 81 80 39
-0.0188547 0.0179874 0.025072 -0.203595 0.345388 0.916109 36 61 128
-0.0164347 -0.0872547 0.0311645 0.0348444 -0.402754 0.914645 122 47 36
-0.0123725 -0.0630429 0.0303283 -0.0355165 0.168407 0.985077 110 43 33
-0.0218701 -0.0676408 0.0311145 0.0637688 0.272176 0.960132 100 43 36
-0.00526149 0.00771335 0.0282802 0.421866 -0.0611084 0.904597 39 63 130
-0.0307067 -0.0415851 0.0323947 0.634589 0.296143 0.71386 105 54 39
-0.0513938 0.00551727 -0.0170588 -0.23898 -0.0342138 0.970422 129 119 53
-0.0132322 0.0156633 0.0262563 -0.275854 0.0737143 0.958369 35 56 118
-0.0109215 -0.0222226 0.0289964 -0.349869 -0.360832 0.864518 100 43 33
-0.00359891 0.0698654 -0.0297391 0.501277 0.123137 0.85648 84 81 39
-0.0229792 0.0795554 -0.0309915 -0.322503 0.32293 0.88978 124 111 46
-0.0335532 0.0824777 -0.0361598 -0.416874 -0.209959 0.884383 101 91 45
-0.047887 -0.0246768 -0.0225041 -0.1326 -0.0954332 0.986565 116 104 56
0.00875869 0.0271062 0.0124351 0.92985 -0.0116007 0.367756 19 19 20
-0.0325576 0.0529101 -0.0353189 0.309791 -0.564595 0.765025 98 90 46
-0.0223739 -0.0208523 0.0290108 0.0648734 -0.116471 0.991073 85 36 32
-0.016059 -0.049059 0.0295827 0.0700881 0.0315536 0.997042 115 45 34
-0.00348971 0.0661442 -0.0293854 0.441274 -0.129603 0.887964 88 83 40
-0.0140088 0.0811542 -0.0293846 0.0392467 0.389242 0.920299 102 90 42
-0.00719058 0.0730082 -0.0278987 0.314606 0.298669 0.901011 99 89 42
0.0580454 -0.0167968 -0.0677243 0.00857939 -0.903357 0.428804 75 72 50
0.0137795 -0.00363149 -0.00836044 0.194751 -0.0639989 0.978763 22 21 17
-0.053386 0.00753763 -0.0189677 -0.483992 -0.275169 0.830683 115 110 51
-0.00214721 0.0292061 0.0238087 0.0871188 0.352441 0.93177 35 55 113
-0.00913336 -0.0629838 0.0306697 -0.105334 0.14167 0.984294 114 48 36
0.011365 0.0858036 -0.0388333 0.399489 -0.0452104 0.915623 27 29 22
-0.0537642 0.00443166 -0.0179616 -0.519924 0.294132 0.801976 119 113 52
0.0458471 -0.00454288 -0.0338287 0.149271 -0.285727 0.946614 120 102 43
-0.0172487 -0.061573 0.0305394 0.137211 0.0446682 0.989534 113 44 33
0.00243579 -0.0147513 0.0286688 0.243573 -0.121981 0.962181 65 43 53
0.068217 0.0176086 -0.0317058 0.251638 0.227217 0.940771 36 43 29
-0.00723649 -0.0533025 0.0312495 -0.13193 -0.128419 0.982905 114 44 32
0.00380969 -0.0648146 0.0309886 0.10716 -0.130327 0.985663 46 30 24
-0.0302491 0.027983 0.0242465 0.379745 0.150927 0.912696 41 61 124
0.0471366 0.0144785 -0.0299385 -0.0525057 -0.0285838 0.998211 95 86 38
0.00861459 0.075325 -0.0389923 0.598536 -0.175869 0.781553 49 48 28
-0.0243311 -0.0295347 0.0280923 -0.163858 -0.147456 0.975401 98 41 34
0.0164749 0.00282023 -0.00866532 0.293821 0.0409026 0.954985 31 27 19
0.00290199 0.0245419 0.0223566 0.255349 -0.197934 0.946371 46 41 84
-0.044649 -0.0344913 -0.0226623 -0.228445 -0.297655 0.926938 109 104 54
0.00975739 -0.0453349 0.0313205 0.054154 0.119065 0.991408 18 16 15
-0.000665813 0.0697034 -0.0314172 0.657099 0.00833393 0.753759 79 77 38
-0.00689858 -0.0302994 0.0288718 0.0990068 0.692942 0.714163 102 44 35
0.00136909 0.0585812 -0.0331424 0.108157 -0.625136 0.772986 21 23 19
0.0318544 0.00994347 -0.0185442 0.852527 -0.124669 0.507597 57 61 34
0.0153121 0.00387382 -0.00817548 0.340016 -0.0116653 0.940347 23 22 18
-0.0130214 -0.043486 0.0287511 0.171334 0.278395 0.945061 110 41 31
-0.036039 0.0826999 -0.0372393 -0.313052 -0.482849 0.817835 89 84 42
-0.050412 -0.0133432 -0.0201479 -0.193845 -0.363998 0.911005 131 124 57
0.0599856 0.0172715 -0.0307571 0.144742 -0.00897511 0.989429 107 94 41
-0.0391452 0.0644829 -0.0385095 0.171006 0.0203831 0.985059 98 91 47
-0.0396621 0.000623282 -0.0101151 -0.487354 -0.196119 0.850896 94 88 46
0.00964899 -0.0419491 0.0298402 0.337653 0.423247 0.840745 21 18 19
-0.0490578 0.0236681 -0.0162507 0.0148494 -0.112026 0.993594 105 100 50
0.0304674 -0.0314396 -0.0230923 0.4888 -0.175893 0.85448 39 37 27
-0.00731818 -0.0896209 0.0301221 -0.156357 -0.388275 0.908182 119 47 35
0.0201821 0.0153458 -0.0103768 0.384991 -0.236013 0.892233 67 66 34
-0.0181303 0.0634281 -0.0266574 -0.561113 -0.125616 0.818152 119 107 46
-0.0448545 0.00922567 -0.0136965 -0.336013 0.102089 0.936308 72 74 42
0.0307612 -0.0195745 -0.0202371 0.624423 0.128243 0.770486 27 30 22
-0.00999331 -0.0912514 0.0290396 -0.156033 -0.575921 0.802477 112 45 33
0.063495 0.0375418 -0.0365903 -0.0340828 0.12395 0.991703 35 35 23
-0.0207601 -0.0202677 0.029016 -0.0154235 -0.0427536 0.998967 91 38 33
-0.0162826 -0.0425122 0.0290553 0.0935783 0.211999 0.972779 112 44 33
-0.028222 0.0336551 0.0241939 0.353258 -0.483196 0.801081 36 57 122
0.0167124 -0.00745619 -0.00934292 0.435786 -0.134708 0.889912 48 41 24
0.00827059 -0.0319123 0.0271296 0.71441 0.158882 0.68145 23 19 18
-0.0249057 -0.0854636 0.0335499 0.553458 -0.0475855 0.831517 112 54 45
0.0352381 0.0236111 -0.0291904 0.667566 0.402102 0.626633 23 21 17
0.00473179 -0.0200883 0.0280273 0.123994 -0.0642099 0.990203 58 33 31
-0.00905344 -0.0828201 0.0316891 0.244417 -0.135017 0.960224 113 48 35
0.0229189 0.0469204 -0.0101378 -0.0330065 -0.00444991 0.999445 18 20 20
0.0623298 0.0185976 -0.0312688 0.110011 0.0339178 0.993351 104 91 38
-0.0466788 -0.0247081 -0.021993 -0.180167 -0.0659828 0.98142 124 112 54
0.00133739 -0.05203 0.031502 0.0470527 -0.0545318 0.997403 102 44 33
-0.0142308 -0.0191323 0.0298631 -0.1049 -0.418952 0.901929 97 41 35
-0.00281861 0.0154266 0.0257042 0.528205 -0.255451 0.80978 34 58 124
0.017376 0.0599612 -0.0352511 -0.11539 0.766485 0.631812 18 19 18
-0.0305727 0.0217325 0.0246491 0.342066 -0.0801788 0.936249 40 62 124
-0.0474924 0.0366575 -0.0129919 -0.0432184 -0.0343808 0.998474 106 97 49
0.00865839 -0.0258805 0.0269864 0.0133527 -0.0142141 0.99981 17 17 17
0.0295284 0.00951897 -0.0162119 0.440224 -0.19301 0.876898 69 69 36
-0.00249261 -0.0494408 0.0315776 -0.0688184 0.0349584 0.997017 105 44 32
-0.0148476 -0.0533566 0.0296397 0.00864582 -0.0221374 0.999718 111 47 36
0.0120141 0.08389 -0.0385267 -0.14028 0.257918 0.955929 31 34 23
0.0320984 0.0272527 -0.0200488 0.899184 -0.291765 0.326101 17 18 16
-0.0586949 0.0025075 -0.021464 -0.316292 -0.200745 0.927179 65 59 46
0.065914 0.0302044 -0.0356855 0.388847 0.388058 0.835589 49 48 31
-0.0313069 -0.0134196 0.0292784 0.133182 -0.0850101 0.987439 64 52 61
-0.0300358 0.00707239 0.02558 0.0260591 0.0514634 0.998335 39 64 136
-0.0238533 -0.0895872 0.0311926 0.0940652 -0.198862 0.975503 118 49 39
0.0627816 0.00135062 -0.0349894 0.598015 -0.511819 0.616782 130 113 45
0.0226405 0.0339014 -0.0125937 0.140206 -0.128452 0.981755 72 72 37
0.0295372 -0.0161179 -0.0202402 0.461807 0.159565 0.87251 43 48 28
0.0588142 0.0172371 -0.0307039 0.12948 0.0075512 0.991553 104 91 39
0.0599841 0.0350377 -0.036481 -0.209749 0.243862 0.946856 48 46 28
0.0666776 -0.0012463 -0.0412123 0.622825 -0.654836 0.428111 119 107 44
-0.00499131 -0.0772979 0.0300939 0.850606 -0.219123 0.477969 110 45 33
0.000157188 -0.0696638 0.0299703 0.310556 -0.433644 0.845877 105 45 33
-0.0235953 -0.015482 0.0296038 -0.0211135 -0.0125973 0.999698 40 49 84
0.0159782 -0.025473 -0.0124938 0.114143 0.0759616 0.990556 23 21 17
-0.000359412 -0.0110729 0.0293448 0.424991 0.0116413 0.905123 39 59 103
-0.0190107 -0.0713801 0.0321444 0.253868 0.0122423 0.967161 99 39 31
0.0373872 0.00274387 -0.0282412 0.498471 -0.0960804 0.861566 60 51 23
-0.0182446 -0.0331995 0.0280085 -0.113147 -0.0561147 0.991992 107 42 32
-0.0077664 -0.0329165 0.0325204 0.26454 -0.125402 0.956187 101 43 34
-0.0108841 -0.0243372 0.0284338 -0.481112 -0.395866 0.78219 101 41 33
0.00876529 0.0700272 -0.0373156 0.564976 0.552303 0.612996 51 51 32
-0.00677268 -0.0901337 0.0300201 -0.175231 -0.36956 0.912535 116 47 35
0.0364366 0.0224844 -0.0294145 0.491753 0.597442 0.633437 33 29 19
0.00995489 -0.053861 0.0303136 0.354268 0.196516 0.914262 23 18 16
-0.021899 0.0674309 -0.0285832 -0.300878 -0.309949 0.901889 123 108 48
0.0193859 0.000162662 -0.00975562 0.515227 0.0193111 0.856836 85 77 36
0.0579481 0.00199176 -0.0320057 0.203021 -0.177001 0.963044 130 113 46
0.0494775 0.0145472 -0.0300448 0.0356543 -0.0121656 0.99929 112 97 43
-0.0438379 -0.00412698 -0.0139908 -0.127189 -0.254291 0.958728 71 65 38
0.043223 0.00557479 -0.0304572 0.289091 -0.293454 0.911214 103 94 42
-0.047025 0.0171162 -0.0155822 -0.0550963 0.0704957 0.995989 102 97 49
-0.0180953 -0.0680772 0.031109 0.058778 0.183334 0.981292 110 44 35
-0.026244 -0.0666398 0.0304925 -0.278704 0.0912844 0.956029 115 50 39
-0.0112531 -0.0641085 0.0306108 -0.042615 0.137354 0.989605 112 45 33
-0.0110324 0.0166782 0.0270652 -0.24906 -0.00983398 0.968438 34 59 127
0.027222 0.00931827 -0.0152757 0.57139 -0.0823497 0.816536 63 58 28
0.0370647 -0.00951863 -0.0291416 0.780481 0.0593668 0.622354 93 76 32
0.00439789 -0.0684298 0.029202 0.349162 -0.465482 0.813273 32 25 21
-0.0260915 0.0349656 0.0234963 0.222528 0.00665546 0.974904 30 47 98
-0.0138156 -0.0835109 0.0323116 0.0939012 -0.154784 0.983476 115 47 36
-0.0260005 0.0316356 0.0232665 0.170711 -0.170884 0.97039 33 55 114
-0.0161387 -0.062622 0.0305769 0.0230422 0.0746236 0.996946 115 46 34
0.049626 0.00754614 -0.030781 0.0491104 -0.144316 0.988312 121 108 44
-0.0148109 -0.0544427 0.0297272 -0.0619893 0.0850102 0.99445 112 45 36
-0.0144082 -0.066343 0.0306872 -0.0490531 -0.0384921 0.998054 110 46 36
-0.0309447 0.017678 0.0253687 0.234812 0.156551 0.959352 37 61 125
-0.0453525 0.0189345 -0.0156862 0.00419997 0.095223 0.995447 92 91 49
0.048237 0.0180393 -0.0297667 -0.118022 0.0346685 0.992406 92 86 40
-0.0287505 0.0340833 0.0248028 0.437262 -0.518522 0.734804 38 57 114
-0.0364027 0.0602108 -0.0355866 -0.327395 0.400139 0.85598 107 99 48
-0.01246 -0.0270378 0.0278669 -0.0755943 0.294552 0.952641 95 49 44
-0.0251359 0.00780147 0.0251849 -0.0943201 0.00502 0.995529 33 57 121
-0.0275889 0.0734499 -0.0313504 -0.751509 0.0843962 0.654303 123 111 48
0.0683004 0.0253393 -0.035023 0.35141 0.187736 0.917206 27 32 24
0.0299922 0.0147597 -0.0160384 0.585589 0.0308432 0.810021 55 58 31
-0.0230552 -0.0487536 0.030223 0.426814 0.060862 0.902289 98 42 33
-0.0195706 0.03552 0.0214207 0.130053 0.59122 0.795955 21 24 35
0.0149584 0.0422923 -0.0112709 0.268069 -0.256916 0.928511 31 28 23
-0.01411 -0.026519 0.0277727 -0.0076711 0.122561 0.992431 97 43 35
-0.0166629 -0.0631689 0.0305231 0.0463074 0.0196814 0.998733 113 46 34
-0.0228041 -0.00764205 0.0286876 -0.0246675 0.431158 0.901939 34 55 116
0.0560084 -0.0117107 -0.05007 0.442156 -0.874076 0.201217 102 92 42
-0.00250471 -0.0900083 0.0298263 0.383576 -0.271353 0.882744 112 48 35
0.000318888 0.00147559 0.0265821 0.276719 0.0440933 0.959939 38 58 105
0.0516877 -0.00445131 -0.0335167 -0.0634526 -0.249521 0.966288 129 115 46
0.00645719 0.0681647 -0.0347258 0.243561 0.0833987 0.966293 58 58 34
-0.0481562 0.0159359 -0.0156983 -0.100164 -0.00199549 0.994969 102 99 50
-0.0546007 -0.00273002 -0.0172426 0.015003 -0.29937 0.954019 107 97 50
0.0507961 0.00758052 -0.0308342 0.049128 -0.144305 0.988313 124 108 44
0.0171017 0.0248996 -0.00882866 0.290925 0.10262 0.951226 33 34 23
-0.00256821 -0.0868473 0.0305349 0.0471411 -0.0575244 0.99723 111 47 34
0.0481563 -0.00335366 -0.0334753 -0.0152845 -0.241042 0.970394 129 115 46
0.0699391 0.00431766 -0.0378756 0.436795 -0.58571 0.682754 35 40 27
0.0455439 0.00684632 -0.0306804 0.0836948 -0.176423 0.98075 122 102 44
-0.01979 -0.065439 0.0310867 0.0447271 0.057288 0.997355 87 39 30
-0.000751412 -0.0170603 0.0289928 0.187739 -0.272764 0.943585 84 42 41
0.000851887 0.0197924 0.0235802 0.77112 0.0751322 0.632241 34 55 113
0.0244843 0.0288192 -0.0134274 0.38997 -0.0410527 0.919912 46 48 30
-0.0397351 0.0649927 -0.0380982 0.138897 0.0779068 0.987238 96 91 47
0.0177145 0.0231666 -0.00883191 0.266508 0.0926103 0.959373 45 44 27
0.016811 0.0127505 -0.00918687 0.497643 -0.133472 0.857051 45 37 24
0.00315819 0.0561954 -0.036005 0.0165032 -0.83709 0.546816 18 19 20
-0.00691423 0.0815798 -0.0305836 0.0850282 0.40108 0.912088 85 77 37
0.0217402 -0.00288194 -0.012274 0.704222 -0.190911 0.683831 82 80 37
0.0429329 0.0346599 -0.0396086 0.603422 0.472538 0.642332 35 35 24
-0.00454105 -0.0358044 0.0299501 0.284467 0.0333792 0.958104 106 42 33
0.0553563 0.0135597 -0.0304811 0.148527 -0.145682 0.978119 116 104 44
-0.0273315 0.0606118 -0.0338449 -0.0688079 -0.189531 0.979461 104 85 44
-0.0128769 -0.0468308 0.02975 -0.17687 0.224608 0.958263 107 42 32
-0.00770838 -0.0737251 0.03173 0.139492 0.34301 0.928917 112 46 35
-0.00289481 -0.000819579 0.0266616 0.230581 -0.00776198 0.973022 39 58 105
0.0237709 0.00877537 -0.0123584 0.487213 -0.0408928 0.872325 59 61 35
0.0722862 -0.00957306 -0.0638986 0.547666 -0.562425 0.619467 44 48 31
0.0152087 0.0317092 -0.0111258 0.5184 0.160269 0.839986 23 22 18
-0.011113 -0.0673909 0.0315989 -0.268719 0.162628 0.949391 112 45 34
0.000370587 0.0179628 0.0243711 0.67158 -0.0898434 0.735465 34 56 116
0.0634248 0.000913102 -0.0359717 0.588723 -0.5083 0.628519 131 113 46
-0.00828211 -0.00121074 0.0283971 -0.11863 0.429347 0.895315 37 64 135
0.0615666 0.00118907 -0.0340673 0.495243 -0.403753 0.769232 129 117 45
-0.0260256 -0.0553878 0.0311371 0.0519156 -0.153146 0.986839 115 48 37
0.00212999 -0.0422194 0.0306702 -0.00304142 0.330301 0.943871 96 42 34
0.0320545 0.00219135 -0.0214042 0.819324 -0.178372 0.544878 61 71 36
-0.0360099 -0.0216295 0.0283133 0.00514077 -0.187447 0.982261 94 89 45
-0.0418807 -0.0270243 -0.0211359 -0.602663 0.190762 0.77486 90 79 40
-0.00216141 -0.0841051 0.0289593 0.380345 0.686756 0.619439 113 46 35
-0.0150292 0.0602076 -0.0254919 0.0387938 -0.0647849 0.997145 93 87 40
-0.0557906 -0.0060426 -0.0188146 -0.302428 0.15616 0.940293 84 82 81
0.00247689 0.0195256 0.0221654 0.474948 0.00914953 0.879966 41 44 87
0.0634301 -0.0108044 -0.0558361 -0.172002 -0.237736 0.95598 97 91 43
-0.00680991 -0.050521 0.030398 -0.0736293 0.295451 0.952516 108 43 32
-0.0144163 0.0304857 0.0217388 0.214916 0.429209 0.877263 33 56 118
0.0189498 0.0441791 -0.0114781 -0.12856 -0.349801 0.927961 71 64 34
-0.0267515 -0.0463839 0.0327348 0.682459 0.0435212 0.729627 112 44 34
0.0279955 0.0267911 -0.014752 0.598299 -0.14645 0.787776 24 26 23
0.00678429 0.00222343 0.0227841 0.490758 0.0862417 0.867017 30 23 25
0.00234619 0.0250233 0.0227146 0.333157 -0.18033 0.925466 41 45 95
-0.000327312 -0.0121813 0.0294333 0.367095 -0.0377381 0.929418 39 60 103
-0.0255052 0.0610599 -0.0329596 -0.242057 -0.399353 0.884266 106 87 42
0.0213077 0.0418521 -0.0113665 -0.175514 -0.146865 0.973461 88 76 37
0.0262219 -0.0235883 -0.0166434 0.424257 -0.244251 0.871979 59 64 36
-0.0159011 -0.00343901 0.0274345 -0.0382884 0.119344 0.992114 37 61 131
-0.0101375 -0.0483741 0.0296364 0.48461 0.228532 0.844349 108 43 32
-0.00345641 -0.0786902 0.0268597 0.872897 -0.0514236 0.485188 112 45 32
-0.0122408 -0.0829252 0.032076 0.101616 -0.239485 0.965568 115 45 33
0.0232109 0.00814727 -0.012141 0.444996 -0.077512 0.892172 65 68 36
0.03301 -0.0144071 -0.0238753 0.66836 -0.120621 0.733993 26 25 19
-0.0473327 -0.0107666 -0.0170622 -0.103543 -0.424296 0.899584 140 129 55
0.00200189 0.0795392 -0.0340617 0.444413 0.195546 0.874219 61 62 34
-0.0140545 0.00770615 0.0271853 -0.247933 0.0641338 0.966652 36 61 129
-0.0218434 0.00889897 0.0256965 -0.133168 0.0836357 0.987558 34 55 115
0.0131297 0.0456664 -0.0135418 -0.183383 0.782574 0.594936 21 21 20
-0.0448755 -0.0142353 -0.0168359 -0.236421 -0.209834 0.948723 126 118 53
0.0130085 0.0673247 -0.0385343 0.488142 0.25947 0.833302 33 35 24
-0.0244068 -0.00826446 0.0289293 -0.055763 0.183001 0.98153 36 58 120
0.00245219 0.0206155 0.0223258 0.503528 0.0356376 0.863243 41 45 91
0.0197604 -0.016506 -0.0144463 0.451327 -0.270222 0.850461 56 50 27
-0.0460956 -0.0185928 -0.0194089 -0.405868 -0.54082 0.73674 115 110 53
-0.0218778 -0.0181847 0.0296277 0.0722669 -0.179312 0.981134 80 37 34
-0.0178827 -0.00706921 0.0292856 -0.119043 0.306366 0.944441 38 64 139
-0.0114266 -0.0428796 0.0285104 0.0827861 0.263816 0.961014 107 41 31
-0.0149906 -0.08034 0.0321024 -0.01732 0.0661535 0.997659 118 47 35
-0.0485607 -0.014011 -0.0191901 -0.45583 -0.383173 0.803366 130 118 57
0.0334389 0.0222313 -0.0249071 0.908114 0.186581 0.374855 19 21 17
-0.00411392 -0.0319665 0.0297406 0.0920647 0.288827 0.952944 101 43 34
0.00482309 0.0844976 -0.0365406 0.314753 0.0240026 0.94887 53 50 31
0.0441449 0.0321232 -0.0388291 0.439371 0.482723 0.757583 43 42 27
-0.016685 0.00380017 0.0270006 -0.121001 0.00142308 0.992651 34 59 130
0.0103856 -0.0500158 0.0296172 0.736636 -0.105183 0.668059 18 16 15
-0.0268088 -0.0661079 0.0303523 -0.31487 -0.0155484 0.949007 114 49 40
-0.0432499 -0.00467975 -0.0141008 -0.0154512 -0.376739 0.926191 55 52 33
-0.0192512 -0.0502423 0.0298165 0.0820767 0.0850038 0.992994 94 48 42
0.035174 0.0302597 -0.0329558 0.644593 0.0236529 0.76416 21 21 16
-0.00835633 0.0393003 0.012391 -0.0126384 0.805735 0.592142 36 26 29
-0.00703653 -0.0785076 0.0317309 0.362142 -0.276457 0.890183 117 46 35
0.00254029 -0.056346 0.0320424 -0.000738571 0.229434 0.973324 87 42 33
-0.0429324 -0.031637 -0.0217572 -0.134173 -0.373941 0.917696 126 120 65
0.00984259 0.0733337 -0.0408871 0.712974 0.296207 0.635555 46 45 28
-0.0547061 -0.0106028 -0.0152483 0.208281 -0.0295663 0.977622 78 80 79
0.0148213 0.0246837 -0.00790505 0.535328 0.228273 0.813213 27 25 21
-0.0520723 0.0320401 -0.0140143 -0.308765 -0.113508 0.944341 108 105 57
0.0349732 0.00468252 -0.0258014 0.744746 -0.314125 0.588795 28 28 20
-0.0218012 -0.0853085 0.0319592 0.242882 -0.313667 0.917944 114 48 38
-0.0125948 -0.0196208 0.0297105 -0.173238 -0.532466 0.828534 96 41 35
-0.0207911 -0.00412257 0.0275777 -0.198984 0.24916 0.9478 38 60 124
0.0295066 0.0366017 -0.0136789 0.652593 -0.341248 0.676514 16 17 18
-0.00812714 0.0633984 -0.0283558 0.311749 -0.205425 0.927693 92 84 39
-0.0558738 0.00884177 -0.0200995 -0.305178 -0.425382 0.852007 84 77 47
0.0331697 0.00464588 -0.0219623 0.777916 -0.224119 0.587041 44 50 31
-0.00631857 -0.048886 0.0303644 -0.0822905 0.0137271 0.996514 109 43 32
0.0304086 0.0240289 -0.0187074 0.783345 -0.0566125 0.619004 19 20 21
0.00511009 0.00376249 0.02335 0.316693 0.0770205 0.945396 60 33 33
-0.0152401 0.0244109 0.0240182 -0.134064 0.351448 0.926559 34 58 116
0.0676921 0.020889 -0.0335633 0.304865 0.496073 0.813 42 48 27
0.00769349 -0.0486322 0.0314354 0.156186 -0.120924 0.980298 23 19 18
-0.00283711 -0.0385045 0.0302179 0.0142859 0.134226 0.990848 102 41 33
-0.039403 0.0730072 -0.0381788 -0.292432 -0.182008 0.938806 105 97 46
-0.0259384 -0.0896763 0.0320138 0.535213 -0.452201 0.713486 110 60 57
0.0670926 0.0139972 -0.0315884 0.148087 -0.20609 0.967263 67 69 37
0.0250719 0.00204035 -0.0136878 0.576706 -0.0496088 0.815444 52 55 31
0.0107384 0.0631077 -0.0362861 0.458057 0.107318 0.882421 35 34 25
0.0590783 0.00438748 -0.0320054 0.228853 -0.224285 0.947271 132 114 47
0.0429898 0.018707 -0.0308806 0.0715377 0.460939 0.884544 71 65 34
-0.044445 0.0249531 -0.0162923 -0.0736481 -0.294404 0.952839 105 104 47
0.00433139 0.0591926 -0.0328978 0.143826 -0.290264 0.946077 20 21 18
0.0659084 0.000112202 -0.0382893 0.506788 -0.538746 0.672992 123 110 45
-0.0500477 -0.0293969 -0.0225102 -0.0912938 0.0401014 0.995016 105 96 71
-0.0253473 -0.0127064 0.0290863 -0.248852 0.0948192 0.963889 38 61 128
-0.0302841 0.0522307 -0.0376681 0.137595 -0.822971 0.551168 66 59 36
0.0641119 0.0357453 -0.0365828 -0.124754 0.206144 0.970536 40 41 26
-0.0295852 0.00988557 0.0254533 0.0240566 0.0134077 0.999621 38 64 135
0.00441399 0.0775293 -0.0356983 0.781431 0.277842 0.558721 59 56 32
0.00164599 0.0703167 -0.0338679 0.299183 -0.0961757 0.949336 72 70 37
0.0366315 0.00881197 -0.0255712 0.72723 -0.253915 0.637702 38 31 19
-0.0211982 0.0600782 -0.0308967 -0.674559 -0.33324 0.658727 93 85 40
0.0623487 0.0338262 -0.0361764 -0.132884 0.412999 0.900985 51 50 29
0.0310294 -0.00507377 -0.01984 0.828139 -0.109738 0.549675 68 72 36
0.0591182 0.00202613 -0.0320588 0.337729 -0.220061 0.915157 131 115 47
-0.00803159 -0.0817098 0.0313128 0.198024 -0.0856148 0.976451 119 47 36
-0.0472541 0.0219469 -0.0163032 0.0372657 0.033452 0.998745 114 106 49
0.0162302 -0.0113839 -0.0101708 0.521611 -0.395239 0.756114 41 36 22
-0.0198016 -0.049725 0.0299194 0.063693 0.0462048 0.996899 87 45 40
-0.00516453 0.082366 -0.0311629 0.225772 0.332325 0.915744 77 72 37
-0.00178921 0.0186671 0.0263823 0.33964 0.140593 0.929988 35 57 116
-0.0275013 0.0132939 0.0253325 0.103107 0.0503877 0.993393 38 63 131
0.00752209 0.0140283 0.0190296 0.789363 0.0953891 0.606471 24 20 21
-0.00130461 0.000887402 0.0265769 0.184372 -0.089784 0.978747 40 53 84
0.021918 -0.0358311 -0.0218881 0.296376 -0.576593 0.761382 30 27 21
0.0520363 -0.0119725 -0.0393646 0.293228 -0.748035 0.595366 105 95 42
-0.00618356 0.0406905 0.0114094 -0.131847 0.688014 0.71362 57 32 32
-0.0200066 -0.0283633 0.0282993 0.152163 -0.12774 0.980066 100 39 32
0.000611187 -0.0877531 0.0287785 0.706655 -0.302377 0.639693 103 50 37
-0.0306607 -0.0172011 0.028947 0.0213223 0.0236755 0.999492 93 44 37
-0.00992757 0.0166657 0.0272645 -0.16985 -0.122482 0.977829 36 60 129
0.0246366 0.0216341 -0.0124989 0.729995 -0.038753 0.682353 47 45 26
0.0275116 -0.0288873 -0.0205856 0.496943 -0.234161 0.835593 79 72 37
-0.0058708 -0.0291097 0.0282416 -0.298051 0.200316 0.933295 101 43 33
-0.0406246 -0.030455 -0.0214129 0.0473097 -0.284351 0.957552 72 76 44
-0.0180867 0.0117659 0.0256715 0.0368442 -0.00380861 0.999314 36 61 123
-0.0325415 0.016996 0.0258655 0.181612 0.0420146 0.982472 43 51 79
-0.0141039 0.068745 -0.0257816 -0.297004 -0.104853 0.949102 114 98 46
-0.0150874 0.0784822 -0.028513 0.0345885 0.297209 0.954186 110 97 44
0.00428459 -0.0621488 0.0313542 0.214043 -0.0853649 0.973087 38 27 23
0.0497255 -0.0131339 -0.0400153 0.129687 -0.80437 0.579802 100 92 43
-0.0532352 0.0276206 -0.0157542 -0.167248 -0.534798 0.828263 76 73 68
-0.0427692 0.0140915 -0.0145163 -0.295391 0.387072 0.873452 93 82 40
-0.0515718 -0.0178237 -0.021896 -0.564521 -0.187793 0.803772 76 72 56
0.0346895 0.0174069 -0.0242197 0.627342 0.278334 0.727304 22 23 20
-0.0436788 0.0207544 -0.015791 -0.021982 0.174271 0.984452 79 84 45
-0.0150845 0.00547014 0.0271649 -0.0488677 -0.0717244 0.996227 34 56 115
-0.00173061 -0.00306083 0.0270394 0.240265 0.237898 0.941104 38 61 112
-0.0170719 0.0285181 0.0228897 -0.00967542 0.276142 0.961068 34 57 120
-0.0563636 0.00479418 -0.0206662 -0.375781 0.0571539 0.924944 88 80 48
0.0301475 0.0079134 -0.0170458 0.597623 -0.148847 0.78784 73 72 37
0.0109137 0.080001 -0.0378076 0.0643438 -0.399857 0.914316 39 39 27
-0.00943618 0.0712218 -0.025652 0.426138 0.174153 0.887737 107 94 43
0.0136469 0.065565 -0.038823 0.547711 0.169382 0.819342 28 30 21
-0.00163861 0.0622208 -0.0306513 0.421289 -0.262199 0.868198 57 54 30
0.0605873 0.0280848 -0.0345363 0.243809 0.115377 0.962936 75 68 35
-0.00355011 0.0040236 0.0274014 0.228893 -0.0221211 0.9732 35 61 127
-0.0159536 -0.0680142 0.0310118 0.152807 0.136503 0.978783 117 45 35
0.0163907 0.00633641 -0.00898449 0.460802 0.146066 0.875401 33 29 22
0.0255572 0.00616048 -0.0139562 0.663794 -0.0616392 0.745371 49 47 29
-0.0241953 0.013347 0.0254329 0.001794 0.0901906 0.995923 35 56 114
-0.0296264 0.0759373 -0.0342391 -0.869321 0.095967 0.484842 119 108 50
-0.02448 -0.0827796 0.0331922 0.152832 0.094215 0.983751 118 49 38
