ply
format ascii 1.0
comment Created by CloudCompare v2.11.1 (Anoia)
comment Created 4/4/21 15:18
obj_info Generated by CloudCompare!
element vertex 672
property float x
property float y
property float z
property uchar red
property uchar green
property uchar blue
property float nx
property float ny
property float nz
end_header
0.103339 0.0276004 -0.0518941 39 39 31 0.14235 0.0741161 0.987038 
0.059924 0.013781 -0.00129407 113 106 54 0.116095 0.415426 0.902188 
-0.0230429 0.0163276 -0.00590205 101 99 53 0.328629 0.275577 0.903361 
0.0383858 -0.0376731 -0.00293404 136 123 62 -0.258757 -0.658797 0.706421 
-0.0416081 -0.0122946 0.00649095 130 131 86 -0.208186 -0.0934965 0.97361 
-0.0906789 -0.0424921 -0.0272601 89 89 70 -0.211069 -0.315895 0.925019 
0.0922584 -0.020866 -0.0179781 122 119 61 0.0206587 -0.0989442 0.994879 
0.0695399 0.0273144 -0.011228 61 60 37 0.345892 0.21098 0.914246 
0.0257151 0.0191756 0.0442789 59 34 27 0.407641 -0.0411625 0.912214 
-0.0391476 0.00169284 0.00455797 127 121 65 -0.0693305 -0.0245323 0.997292 
-0.0315001 -0.00139559 0.00455797 119 114 61 0.216266 0.181769 0.959265 
0.0564026 -0.00341258 0.00423497 132 130 64 -0.027894 0.123849 0.991909 
0.0692087 0.0247632 -0.0102241 60 61 40 0.510091 0.214695 0.832895 
-0.0899118 0.0273267 -0.0453371 51 50 43 0.334491 0.255616 0.90707 
0.0975439 -0.03463 -0.0265651 111 110 59 0.321428 -0.529317 0.78518 
0.0714402 0.000728617 -0.00557107 62 66 40 0.940972 -0.0267394 0.337426 
0.0123857 0.0721675 0.0541419 100 45 39 -0.412721 0.37477 0.830186 
0.0639809 -0.018384 0.00326395 122 121 68 0.348121 -0.201996 0.915429 
-0.0185052 -0.0253718 0.00391197 73 69 44 -0.138927 0.00777992 0.990272 
-0.0166705 0.024464 -0.0132421 35 31 24 0.50184 0.555548 0.662965 
-0.035995 -0.0475906 -0.00755906 96 89 53 0.0556297 -0.640455 0.765978 
-0.0368354 -0.0389986 -0.00227707 97 95 54 0.184136 -0.576756 0.795893 
-0.0336958 -0.0408372 -0.00425005 106 103 60 -0.0970942 -0.578218 0.810085 
-0.0287041 -0.0332948 -0.000640029 122 117 63 -0.105356 -0.316068 0.942869 
-0.0634029 0.0133997 -0.0172991 114 108 56 -0.560744 0.399592 0.725185 
-0.0519201 -0.0477813 -0.0108931 118 114 62 0.123863 -0.681993 0.720794 
-0.0199408 0.0337036 -0.0220791 41 43 30 0.198529 0.473185 0.858302 
-0.0903681 0.0213445 -0.0406591 60 58 41 -0.112096 0.822526 0.557571 
0.0157066 -0.0108741 0.0451589 92 55 84 0.623338 -0.472124 0.623338 
0.0270808 0.0520339 0.055572 98 44 37 0.0491209 0.280871 0.958488 
0.0355015 0.00873808 0.00164193 68 62 41 0.214315 0.214315 0.952963 
0.0156785 0.0746258 0.0538549 72 36 32 -0.172551 0.64592 0.743648 
0.0633553 0.0268346 -0.00789106 98 91 48 0.235189 0.518031 0.822393 
-0.0508107 -0.0479915 -0.0115631 105 104 58 0.13817 -0.58685 0.797819 
0.0198121 -0.0157047 0.0413319 98 45 38 0.538649 -0.28907 0.791388 
-0.0487296 -0.00179526 0.00326395 117 115 63 -0.284059 0.164455 0.944598 
-0.0383286 -0.00657026 0.00584793 135 127 67 -0.0535307 0.184383 0.981396 
0.0530802 -0.0678614 -0.0395871 102 98 73 0.0602029 -0.301014 0.951717 
0.0356503 0.0387783 -0.0169591 26 25 21 0.618998 0.272104 0.73675 
0.0828622 0.0103169 -0.021736 89 84 46 0.24447 0.549669 0.798811 
0.0951864 0.0308923 -0.0518941 28 30 26 -0.198545 0.206541 0.958082 
-0.0743777 -0.0352926 -0.0262191 105 100 57 -0.0286805 -0.290546 0.956431 
-0.0651452 -0.000446616 -0.0152661 123 116 62 -0.256393 0.314335 0.914033 
0.074346 0.00693008 -0.0152661 37 36 26 0.728534 0.0558208 0.682732 
-0.0149359 -0.00712721 -0.00722706 106 48 41 0.426912 -0.0414868 0.903341 
-0.0288889 -0.0468109 -0.00755906 81 73 47 -0.114111 -0.709859 0.695039 
0.033281 0.00592444 0.00261593 41 38 28 0.208643 0.0962005 0.973249 
0.0940711 0.00716252 -0.0193411 91 85 45 0.210154 0.677164 0.705184 
0.0246385 0.0062618 0.0425139 60 33 28 0.781025 -0.191053 0.594557 
-0.043454 -0.00137968 0.00423497 112 111 61 -0.139722 0.0991188 0.985217 
0.0120266 -0.0374018 0.035674 125 51 42 0.660589 -0.704945 0.258216 
0.0214192 0.0400975 0.0538549 125 50 42 0.104795 -0.14334 0.98411 
0.0986797 -0.0129 -0.0172991 108 105 56 0.177381 -0.159515 0.971129 
0.0464922 0.0302881 -0.0105581 77 75 45 -0.0123303 0.571302 0.820647 
-0.0456893 0.0166593 -0.00227707 86 86 50 -0.0604588 0.399028 0.914943 
-0.0338775 0.0377783 -0.020708 66 62 40 0.429568 0.841954 0.326472 
0.057502 -0.0400907 -0.00392103 114 112 62 -0.066487 -0.544627 0.836039 
-0.077599 -0.0163779 -0.0139161 132 126 67 0.0747009 0.204509 0.97601 
0.0993938 0.00442598 -0.0203661 77 78 42 0.495058 0.435849 0.751634 
0.0589136 -0.0295159 0.00099093 133 131 68 -0.0171454 -0.43391 0.900793 
-0.00129176 -0.069288 0.0410369 85 46 38 0.898324 -0.23377 0.371974 
0.0744943 0.0387134 -0.0307471 27 28 23 0.776563 0.521476 0.35357 
0.0178357 -0.00822621 0.0445729 122 53 44 0.651042 -0.182292 0.736827 
-0.0217382 0.000919211 -0.00623303 115 110 59 0.492029 -0.157155 0.856277 
0.0816378 0.0336811 -0.0515281 22 22 21 0.332132 0.106229 0.937232 
0.0549072 -0.0131987 0.00488097 125 123 69 -0.0915136 -0.0734369 0.993092 
-0.0538537 -0.025527 -0.000313041 140 137 71 -0.201503 -0.162502 0.965914 
-0.0746542 -0.0312956 -0.0244891 115 113 61 0.00676812 -0.537389 0.843308 
0.0702175 0.0339043 -0.0162811 48 48 33 0.542271 0.555785 0.630115 
-0.0911333 -0.0312219 -0.0231111 108 105 63 0.190794 -0.503276 0.842799 
0.064782 0.0028197 0.00261593 117 115 59 0.437898 0.183068 0.880189 
0.0082186 0.0636634 0.0512659 85 42 38 -0.0428041 -0.351512 0.935204 
0.00830608 0.069334 0.0535679 57 41 42 0.0138981 -0.337344 0.941279 
-0.0136267 -0.0242297 0.00584793 121 52 43 -0.690778 0.203353 0.693883 
-0.0448638 -0.0422755 -0.00524008 116 111 61 -0.135253 -0.587089 0.798144 
0.0271944 0.0532413 0.0549999 96 44 37 0.0655155 0.299316 0.951902 
0.0679762 -0.0196361 0.000338974 104 110 63 0.573183 -0.0728986 0.816178 
-0.0660838 -0.0384763 -0.0244891 118 111 61 -0.426788 -0.394819 0.813615 
-0.087753 0.0108662 -0.020708 105 102 57 -0.380707 0.461025 0.801573 
-0.0400036 -0.0100508 0.00649095 126 123 69 -0.150982 0.173819 0.973135 
0.00997544 -0.00106956 0.0483689 125 51 43 0.193211 0.041487 0.98028 
0.0662779 -0.0156112 0.00293994 105 108 63 0.548567 -0.219734 0.806716 
-0.0727091 -0.00373157 -0.0152661 134 125 64 0.0365989 0.190078 0.981087 
-0.0322512 0.0325914 -0.011228 75 73 45 0.0384178 0.406699 0.912754 
0.0374957 -0.00729242 0.00293994 133 127 64 -0.0294137 0.196484 0.980066 
-0.0745131 0.0226668 -0.0356761 76 72 44 -0.0882894 0.881493 0.46387 
-0.0123332 -0.0268739 0.00873494 125 56 45 -0.47958 -0.192728 0.856072 
-0.021719 0.00722631 -0.00458008 98 96 52 0.855542 0.0630104 0.513885 
0.00923037 -0.023589 0.0431029 61 64 141 0.38126 0.108735 0.918051 
-0.0669641 -0.0305012 -0.022423 106 107 56 -0.433016 -0.44599 0.78332 
0.0594696 -0.012044 0.00488097 110 111 64 0.0301454 -0.0343034 0.998957 
0.1076 -0.0362576 -0.0303971 61 58 36 0.493064 -0.233557 0.838057 
-0.0843285 -0.0356926 -0.026912 81 83 51 0.168562 -0.291899 0.941478 
-0.0750964 0.00241154 -0.0159421 115 107 57 0.084307 0.237821 0.967643 
0.0647843 -0.0445016 -0.00755906 105 100 57 0.445389 -0.665582 0.598857 
0.00895305 0.0166884 0.0544279 127 55 45 0.915519 -0.237891 0.324396 
0.00632467 0.0292438 0.0474959 125 53 43 -0.0195397 -0.17126 0.985032 
-0.0844474 0.0195173 -0.0286511 66 66 42 0.224214 0.883491 0.411306 
-0.0184451 0.0447463 -0.0272601 30 32 27 -0.172605 0.188179 0.966849 
0.00512142 -0.0277028 0.0439849 128 55 48 0.266525 -0.093992 0.959234 
-0.0786323 -0.0267176 -0.022423 118 116 63 0.0897546 -0.522856 0.847682 
0.0323149 -0.00459548 0.00326395 44 39 30 0.194351 -0.0615646 0.978998 
0.0747227 0.00944436 -0.0156041 36 36 25 0.686774 0.104862 0.719267 
0.0803375 -0.0403714 -0.028303 104 96 53 0.188689 -0.765493 0.615156 
0.0579696 -0.00554457 0.00455797 138 133 64 -0.0224854 0.0760221 0.996853 
0.0445966 0.0429665 -0.0237991 32 32 25 0.424113 0.646981 0.633675 
0.0413235 -0.0627452 -0.0403021 92 92 57 -0.213595 -0.678203 0.703148 
0.0207669 0.0705691 0.0567119 102 42 35 -0.204503 0.591983 0.779573 
0.0338803 -0.0217739 0.00229192 104 98 55 0.299287 -0.0875642 0.950137 
-0.0565868 -0.0163137 -0.00227707 116 115 62 -0.801963 -0.0700467 0.593253 
0.0692284 -0.0229812 -0.00129407 102 104 59 0.661805 -0.162789 0.731789 
0.0286738 0.0553882 0.0547139 68 37 32 -0.0478225 0.16213 0.98561 
0.0998378 -0.0363054 -0.0279551 114 109 59 0.141526 -0.222027 0.964715 
0.107177 -0.00321856 -0.0213931 66 62 35 0.405372 0.203418 0.891232 
0.0894352 0.0119868 -0.0248351 75 75 44 0.0931355 0.83822 0.53732 
0.0916357 0.0294308 -0.0515281 39 40 31 0.0333102 0.430367 0.902039 
0.0260057 -0.0469317 -0.0162811 66 58 36 -0.046689 -0.409529 0.911102 
0.0941183 -0.0173096 -0.0176391 110 111 60 0.0777439 -0.119517 0.989784 
-0.0450399 -0.0542776 -0.0162811 101 95 54 0.0292081 -0.588334 0.80809 
0.0309286 -0.0175389 0.00358796 60 50 29 0.454721 -0.178062 0.872653 
0.105301 0.0148702 -0.029349 45 48 33 0.329326 0.501148 0.800247 
0.00131854 -0.0348025 0.0460369 130 54 45 0.23019 0.119596 0.965769 
-0.0145268 -0.0203595 0.00423497 110 49 41 -0.16695 0.144355 0.975341 
-0.0897919 0.0286436 -0.0456991 55 52 51 0.442001 0.33504 0.832095 
0.050537 0.0452893 -0.0332051 55 50 36 0.233144 0.480003 0.845719 
-0.0513349 0.0150638 -0.00392103 97 94 54 -0.470957 0.064912 0.879765 
-0.0355046 -0.00451808 0.00584793 129 122 64 -0.0314848 0.180746 0.983026 
0.0684996 0.0183083 -0.00590205 79 82 47 0.142375 0.444383 0.884451 
-0.00526703 -0.0558937 0.0442789 131 58 50 0.115356 -0.0897212 0.989264 
0.0183222 0.00539786 0.0454519 120 51 42 0.470957 -0.064912 0.879765 
0.0568147 -0.0438107 -0.00524008 116 114 62 0.0695704 -0.261838 0.962601 
0.0336782 0.0441626 0.0524179 32 32 36 0.532535 -0.212099 0.819402 
0.052865 -0.00598319 0.00423497 129 128 66 -0.093641 0.0982652 0.990745 
0.00483962 0.059669 0.0489499 46 38 42 -0.336015 -0.112005 0.935173 
-0.0842372 0.0148392 -0.0220791 76 78 48 -0.131707 0.584543 0.800602 
-0.0184204 0.0240527 -0.0118981 38 39 30 0.47665 0.266863 0.837609 
0.0683437 -0.0171767 1.29369e-05 107 109 61 0.599201 -0.0437064 0.799405 
0.0123431 0.0581249 0.0529939 127 54 44 -0.327885 -0.0776917 0.941518 
0.0613009 0.0148503 -0.00194907 115 106 55 0.172462 0.476112 0.862308 
-0.0321146 -0.0263881 0.00229192 93 98 54 -0.0337124 -0.462533 0.885961 
0.0683912 0.0334028 -0.0139161 62 61 39 0.423696 0.73034 0.535803 
0.0623872 -0.0344963 -0.000967019 132 129 63 0.122997 -0.37452 0.919025 
0.0839631 -0.004816 -0.0162811 96 93 49 0.000977516 0.000977516 0.999999 
0.00462919 0.0468988 0.0454519 102 46 41 -0.856281 0.00674237 0.516466 
-0.0903358 0.0293919 -0.0456991 59 53 57 0.385169 0.285478 0.87758 
0.0956065 -0.00408615 -0.0166201 87 87 49 0.0976073 0.0318046 0.994717 
-0.0451733 -0.0522773 -0.0152661 101 95 54 0.0348109 -0.575076 0.817359 
-0.0224255 -0.0425815 -0.00326306 87 80 51 -0.415543 -0.584409 0.696986 
0.0913663 -0.0336136 -0.022423 114 110 58 -0.00131299 -0.452981 0.891519 
-0.0232618 -0.0133604 0.00164193 173 169 114 0.577468 0.513492 0.63471 
0.0701628 0.00851857 -0.00524008 85 88 51 0.876398 0.273026 0.396717 
-0.0862708 0.0158226 -0.0231111 75 74 48 0.00970484 0.661315 0.750045 
0.096579 -0.0364353 -0.0276071 111 107 57 0.153575 -0.420538 0.894182 
-0.0484077 -0.00935897 0.00455797 120 120 65 -0.121666 -0.128893 0.984167 
-0.0548346 -0.030439 -0.00129407 139 133 68 -0.549357 -0.230575 0.803145 
-0.049126 0.0210349 -0.00392103 87 84 47 -0.00687741 0.601086 0.799155 
0.0370166 0.011042 0.000664952 92 85 49 0.102662 0.381903 0.918483 
-0.0203134 0.00956043 -0.00590205 76 76 46 0.584031 0.0789231 0.807886 
-0.0842309 0.012238 -0.0203661 96 91 54 -0.119494 0.59452 0.795152 
0.0467071 -0.000598727 0.00293994 115 113 60 -0.064253 0.0980703 0.993103 
-0.0871302 0.0166259 -0.0244891 73 71 47 0.0181535 0.682852 0.730331 
0.0863959 0.0238904 -0.0325011 56 54 35 -0.0284369 0.486136 0.87342 
0.0191787 0.0200633 0.0477869 124 52 41 0.452903 0.0309103 0.891024 
0.0567956 -0.0203804 0.00358796 137 133 74 -0.084386 -0.148567 0.985295 
0.0482841 -0.0360432 -0.000967019 140 128 64 -0.0263211 -0.30708 0.95132 
-0.0930902 0.0110524 -0.0190001 78 67 65 0.283047 0.189158 0.940268 
-0.0741471 -0.0248045 -0.0210511 124 119 61 -0.0797531 -0.76708 0.636575 
0.0547531 0.0396504 -0.0272601 64 61 39 0.3988 0.690039 0.603991 
-0.0771016 -0.030896 -0.0241441 116 112 60 0.180892 -0.503808 0.844663 
0.0492777 -0.04066 -0.00293404 110 105 59 0.0701281 -0.599667 0.797171 
0.0190567 0.0741535 0.0532809 70 35 31 0.321118 0.414195 0.85166 
-0.06938 0.0105149 -0.0190001 116 109 57 -0.314325 0.5948 0.739873 
-0.0306202 -0.0439113 -0.00557107 97 86 54 -0.0731819 -0.45428 0.887848 
-0.0275507 -0.00264078 0.00326395 132 128 62 0.73946 0.0984967 0.665955 
-0.0259925 -0.0273571 0.00229192 103 107 63 0.0461568 -0.378486 0.924455 
0.0400887 0.0156479 -0.000967019 97 93 50 -0.0471637 0.309751 0.949647 
0.033759 -0.0110904 0.00293994 94 84 51 0.1359 -0.0886303 0.98675 
-0.0189218 -0.0424256 -0.00129407 96 71 46 -0.319755 -0.350063 0.880462 
-0.0680028 -0.0127769 -0.0135791 134 126 67 0.243252 0.0794036 0.966707 
0.0967182 0.00811025 -0.0213931 81 78 42 0.197466 0.511 0.836592 
0.0166028 -0.00922895 0.0454519 119 53 51 0.742241 -0.36378 0.562798 
0.00834058 0.0115572 0.051842 127 54 45 0.622032 -0.52426 0.581574 
0.0399871 -0.0502616 -0.0118981 119 115 62 -0.282723 -0.551231 0.784991 
-0.0563068 -0.0557413 -0.0169591 111 106 72 -0.0406348 -0.587103 0.808492 
0.0179415 0.0633217 0.0572809 122 55 47 -0.161451 -0.195033 0.967417 
0.0982301 -0.00770106 -0.0169591 106 105 55 0.21718 -0.0347968 0.975511 
0.0351803 0.0062597 0.00229192 66 63 41 0.148531 0.151027 0.977307 
-0.0542065 0.0111191 -0.00557107 105 100 54 -0.583578 0.0941255 0.806583 
0.0593422 -0.0088956 0.00488097 135 128 70 0.0342323 0.0300829 0.998961 
-0.00434923 -0.0602886 0.0431029 127 54 45 0.0670218 0.149329 0.986513 
0.0421297 -0.0211972 0.00229192 143 138 67 -0.0732803 -0.286693 0.955216 
-0.0340633 0.0116187 1.29369e-05 111 108 56 -0.00681503 0.565648 0.824619 
-0.00316269 -0.0370613 0.0463289 120 54 46 0.283725 -0.269323 0.920307 
0.0481387 -0.015878 0.00391197 136 130 68 -0.0407024 -0.0281786 0.998774 
-0.00772789 -0.0578044 0.0457449 126 55 45 0.165755 0.539076 0.825786 
-0.0307434 -0.00527106 0.00520295 137 131 64 0.3998 0.0249056 0.916264 
-0.0426447 -0.0458871 -0.00722706 108 103 56 -0.378685 -0.581962 0.719665 
0.067121 -0.0019268 0.00196695 126 127 66 0.691238 -0.0617947 0.71998 
-0.079795 0.0292245 -0.0515281 47 45 41 0.0514205 0.851912 0.521154 
-0.090318 0.0125723 -0.021736 91 89 54 0.135896 0.294665 0.945888 
-0.0361875 0.0209322 -0.00557107 89 89 52 0.104042 0.349958 0.93097 
0.0146618 0.0394728 0.0527059 122 48 40 -0.21652 -0.0177476 0.976117 
-0.0713149 -0.016107 -0.01459 135 123 65 0.0769412 -0.109096 0.991049 
-0.00468832 -0.0196505 0.038066 113 55 55 0.301014 -0.0602029 0.951717 
-0.0343301 -0.0590134 -0.0241441 106 93 53 -0.0313443 -0.865374 0.500145 
9.85693e-05 -0.00545814 0.0503989 122 55 49 0.866261 -0.398755 0.300976 
0.0103989 0.046687 0.0521309 125 53 46 -0.502233 -0.132473 0.854525 
0.0285255 0.0542086 0.0549999 73 37 31 -0.121213 0.181194 0.975949 
-0.0482749 -0.0572427 -0.020708 102 96 55 0.163635 -0.909239 0.382763 
-0.0489377 0.0274662 -0.00789106 80 77 50 -0.219806 0.656299 0.721773 
0.043366 0.0431378 -0.0234551 28 29 24 0.254136 0.629815 0.733995 
0.10843 -0.0233875 -0.0251801 95 87 42 0.507033 -0.340688 0.791739 
0.035209 -0.00567223 0.00261593 111 100 54 0.174884 -0.09906 0.979593 
-0.0687543 -0.0295721 -0.022423 115 113 59 -0.330267 -0.407794 0.851251 
0.0875404 0.0287237 -0.0511611 42 42 31 0.0630476 0.395724 0.916203 
0.0212739 0.00972415 0.0445729 116 51 42 0.324457 -0.0239871 0.945596 
-0.0894604 -0.0374123 -0.0255261 91 88 53 0.308142 -0.400125 0.863104 
0.0206278 0.0326384 0.0524179 121 51 42 -0.0375982 -0.234079 0.97149 
-0.0783925 0.0145547 -0.021736 85 83 52 0.0877384 0.559512 0.824165 
0.0851067 0.00272793 -0.0172991 95 95 51 0.0239262 0.153811 0.987811 
-0.0324393 0.0273939 -0.00789106 95 90 53 0.0547794 0.54639 0.835738 
0.0645781 0.0492538 -0.0370941 21 24 24 0.168939 0.23811 0.956433 
-0.0241763 -0.0416725 -0.00326306 95 89 54 -0.199511 -0.697515 0.688236 
0.0189401 0.0505165 0.0538549 125 51 43 -0.19116 -0.172954 0.966201 
0.0821811 0.028151 -0.0381611 30 31 26 0.739351 0.573606 0.352613 
-0.0751043 -0.0167729 -0.0139161 135 125 65 0.0688827 -0.0557622 0.996065 
0.0380609 -0.0389177 -0.00425005 137 124 63 -0.431004 -0.580774 0.690606 
-0.0174766 -0.0267874 0.00391197 78 60 41 -0.251712 -0.0663719 0.965524 
-0.0227888 0.0415194 -0.026912 56 55 38 -0.103989 0.491453 0.864673 
0.0239944 -0.0420094 -0.0125701 37 32 23 0.398575 -0.533074 0.746304 
0.0694827 0.0319098 -0.0132421 57 57 36 0.61066 0.553146 0.566679 
-0.0283193 0.0151796 -0.00260603 115 109 56 0.395638 0.463461 0.79289 
-0.0250431 0.03019 -0.0115631 80 79 48 0.428473 0.406006 0.807199 
0.0752302 0.00873564 -0.0159421 38 36 25 0.606705 0.0494981 0.793384 
0.100968 0.0115161 -0.0262191 66 66 36 0.220095 0.644675 0.732088 
-0.00178498 -0.00871117 0.0492399 109 57 64 0.453709 -0.716296 0.530159 
-0.0709016 0.00559694 -0.0166201 125 115 59 -0.051425 0.194937 0.979467 
-0.0190882 0.0301488 -0.0176391 39 40 29 0.153058 0.683457 0.713765 
0.0121373 -0.0336645 0.0410369 127 54 45 0.713354 -0.415434 0.564394 
-0.0118792 0.00321796 -0.0102241 124 54 46 0.664827 -0.0767665 0.743042 
0.102951 0.0212889 -0.0328531 50 50 34 0.120816 0.332582 0.935303 
0.0919314 0.0162539 -0.0276071 64 60 38 -0.161779 0.222282 0.961467 
-0.0182118 0.0035348 -0.00656408 39 36 27 0.228124 -0.110876 0.967298 
-0.0576846 0.0167935 -0.00822407 93 90 48 -0.848884 0.180518 0.496799 
0.0446082 -0.0215881 0.00261593 146 140 69 -0.124261 -0.22162 0.967184 
-0.0358549 0.0138189 -0.00129407 108 104 55 0.0452254 0.339837 0.939396 
0.0571894 0.0378757 -0.0258721 72 69 41 0.143865 0.895954 0.420201 
0.027902 0.0663853 0.0578499 99 45 37 -0.0776313 -0.265983 0.960847 
-0.0834984 0.020108 -0.0332051 66 66 43 -0.0504696 0.940805 0.33517 
-0.0448176 -0.0661274 -0.029349 83 80 55 0.119915 -0.322019 0.939108 
0.0262038 -0.0456808 -0.0162811 66 59 36 -0.0264266 -0.310827 0.950099 
0.0988151 -0.00393517 -0.0172991 95 87 45 0.196043 0.0742771 0.977778 
0.0718767 -0.0119906 -0.00689506 64 66 40 0.936361 -0.0481855 0.347717 
0.109883 -0.00233682 -0.0220791 105 100 46 0.16701 0.141896 0.975691 
-0.0555053 -0.0600764 -0.022423 102 100 66 0.403356 -0.732627 0.548235 
0.0626872 0.0217789 -0.00623303 102 94 50 0.148456 0.2715 0.95092 
0.0108327 -0.0148846 0.0404439 43 70 183 0.251989 -0.827081 0.502432 
-0.0292027 0.00390073 0.00229192 125 119 61 0.635843 0.18539 0.749222 
-0.0279963 -0.024523 0.00261593 148 141 72 0.06258 -0.0669716 0.99579 
0.0677867 -0.0444205 -0.0105581 104 94 55 0.644217 -0.620791 0.446769 
-0.0525961 -0.0523065 -0.0139161 115 109 58 0.0382075 -0.731603 0.68066 
0.0397351 0.0362062 -0.0169591 38 36 26 0.221401 0.574403 0.788063 
0.028229 0.0518522 0.055572 80 39 35 0.181716 0.0710016 0.980784 
-0.0480866 0.0183167 -0.00293404 80 80 46 0.0364244 0.0982355 0.994496 
-0.0280621 0.0369928 -0.0234551 69 70 45 0.100959 0.405218 0.908629 
0.0545395 0.0269246 -0.00722706 83 77 46 0.0233968 0.549137 0.835405 
-0.0341822 0.00655319 0.00358796 124 120 62 0.217585 0.375297 0.901005 
0.0756607 -0.0208123 -0.0162811 57 51 30 0.558713 -0.170174 0.811715 
-0.0410168 -0.0211818 0.00391197 119 119 65 0.0347786 -0.219465 0.975 
0.0173514 0.0343393 0.0524179 118 49 39 0.0510737 -0.498313 0.865491 
0.0260845 0.0434876 0.0538549 100 45 36 0.0120697 0.117406 0.993011 
0.0394284 -0.0697746 -0.0417351 119 119 101 -0.341487 0.359863 0.868266 
0.0433743 -0.0384471 -0.00227707 120 110 59 -0.0263782 -0.578933 0.814948 
0.0166272 -0.00505805 0.0451589 123 54 48 0.695389 0.192735 0.692306 
-0.0904698 -0.00862254 -0.0166201 116 112 66 -0.309964 -0.0341593 0.950134 
-0.0274549 -0.0114244 0.00455797 128 124 69 0.425664 0.0725408 0.901969 
0.0484885 0.0376925 -0.021736 69 65 40 0.0918978 0.62578 0.774567 
0.0652748 -0.00229119 0.00326395 131 131 65 0.311013 0.00619547 0.950386 
0.0284325 -0.0388546 -0.0115631 73 64 39 -0.0783515 -0.542762 0.836224 
0.0297104 -0.0370616 -0.00822407 75 66 37 -0.525021 -0.742271 0.416396 
0.0432638 -0.0289282 0.000664952 142 132 66 0.00124106 -0.321435 0.946931 
0.0885216 0.00412426 -0.0176391 99 95 52 0.0377996 0.242649 0.969377 
0.100152 -0.0383132 -0.0286511 115 110 59 0.065799 -0.513793 0.855388 
0.0812566 0.0125207 -0.0220791 80 77 42 0.3195 0.566752 0.759415 
0.046275 -0.0118249 0.00391197 112 112 65 -0.0857956 0.0293226 0.995881 
0.0640742 -0.0418027 -0.00557107 101 94 54 0.329629 -0.350896 0.87648 
0.0644798 -0.0618323 -0.0410181 97 93 56 0.839322 -0.146033 0.523654 
-0.0284662 -0.0206681 0.00358796 147 142 74 0.0864582 -0.13857 0.986571 
-0.0322158 -0.0586603 -0.0234551 100 93 57 -0.198918 -0.818447 0.539051 
0.0783187 -0.0276543 -0.0183191 110 101 51 0.289462 -0.307094 0.90659 
0.0849465 0.00598623 -0.0179781 91 87 48 0.0739288 0.383086 0.92075 
-0.0624783 0.015179 -0.0172991 102 95 52 -0.634072 0.373856 0.676893 
-0.0708592 -0.00466303 -0.0149281 135 130 65 0.00351396 0.219037 0.97571 
0.0933463 0.00206551 -0.0172991 99 95 51 0.106028 0.162089 0.981063 
-0.0266496 -0.03297 1.29369e-05 101 105 60 -0.193013 -0.290214 0.937295 
-0.0475681 0.00680799 0.00229192 127 121 61 -0.355196 0.543337 0.760671 
0.0316126 0.0710496 0.0581329 41 28 26 -0.0492027 0.133877 0.989776 
0.0793511 -0.0323468 -0.0213931 129 116 56 0.181978 -0.379719 0.907027 
-0.0854557 0.028058 -0.0493331 48 47 40 0.351111 0.54851 0.758853 
0.0771094 -0.00442298 -0.0139161 71 63 37 0.625189 0.297327 0.72162 
0.0407853 0.023329 -0.00590205 92 83 44 0.11638 0.59663 0.794033 
0.106238 -0.0172529 -0.021736 70 73 42 0.322054 -0.221859 0.920358 
-0.0858822 -0.0347536 -0.0258721 96 96 57 0.230328 -0.26383 0.936666 
-0.0743819 -0.0162479 -0.0139161 135 124 68 0.0871798 0.0803866 0.992944 
0.0982433 -0.0308318 -0.0231111 115 115 61 0.381231 -0.548122 0.744464 
0.00968139 0.0237618 0.051842 128 53 42 0.537867 0.384191 0.750398 
0.0673499 -0.0436805 -0.00922304 104 97 55 0.659876 -0.579281 0.478536 
0.0285584 0.0372356 0.0532809 49 30 26 0.020458 -0.0872155 0.995979 
-0.0724734 0.00327925 -0.0162811 119 113 59 0.0151531 0.19699 0.980288 
0.085658 0.0233542 -0.0325011 58 55 36 0.0175738 0.498826 0.866524 
0.0327544 0.0283843 -0.00557107 27 25 22 0.305163 0.281802 0.90965 
-0.010501 0.0328868 -0.0227671 88 46 35 0.128904 0.42354 0.896659 
-0.028439 -0.0352365 -0.000967019 123 118 62 -0.149097 -0.352538 0.923844 
-0.0753122 0.0121191 -0.020708 96 92 53 0.0823821 0.614252 0.784798 
0.0964559 0.0162037 -0.0279551 62 60 38 0.219051 0.27486 0.936199 
0.0579239 0.029714 -0.00989008 88 81 49 0.0351675 0.620355 0.783532 
0.102412 0.00333968 -0.0213931 91 86 44 0.289971 0.310578 0.905239 
0.0765427 0.0358982 -0.0325011 22 24 22 0.889982 0.096403 0.445689 
-0.0668234 -0.0174381 -0.0135791 143 130 67 -0.378142 -0.0353281 0.925073 
0.0852521 -0.00051366 -0.0169591 103 99 54 0.0189557 0.13046 0.991272 
-0.0891356 -0.00882929 -0.0162811 125 118 65 -0.256528 -0.03314 0.965969 
0.0307398 -0.048989 -0.0169591 77 70 41 -0.538358 -0.582236 0.609239 
-0.0488454 -0.0476645 -0.0115631 106 102 58 0.0147096 -0.477394 0.878566 
0.0898324 -0.015989 -0.0176391 111 112 61 -0.0239262 -0.153811 0.987811 
-0.0875133 -0.0338181 -0.0251801 105 104 59 0.480231 -0.392916 0.784216 
0.0330552 0.000308244 0.00293994 53 47 33 0.259878 0.133237 0.956405 
-0.0333089 -0.00924417 0.00488097 128 124 70 0.115762 -0.0415844 0.992406 
0.04143 0.00213267 0.00229192 110 113 60 -0.171728 0.0962166 0.980434 
0.0185762 0.060978 0.056142 126 54 46 -0.179081 -0.478043 0.859886 
0.0394957 -0.0495333 -0.0115631 124 118 63 -0.249188 -0.512306 0.821856 
0.0609872 0.00214 0.00358796 114 116 59 0.0566822 0.0855791 0.994718 
0.0125087 -0.0139479 0.0428079 45 68 173 -0.158824 -0.838649 0.521002 
0.0627651 -0.0687743 -0.0403021 107 105 86 0.195551 -0.1249 0.972708 
-0.0236383 -0.0309031 0.00099093 61 65 49 -0.0985107 -0.249475 0.963358 
0.0206898 0.0594669 0.056142 127 53 45 -0.24291 -0.140494 0.959821 
-0.072709 0.00781528 -0.0176391 113 109 60 -0.0454056 0.343785 0.93795 
-0.0153438 -0.032771 0.00358796 113 50 40 -0.30477 -0.127547 0.943847 
-0.0860533 -0.000984154 -0.0166201 105 103 59 -0.119769 0.055892 0.991227 
-0.0366489 -0.0181054 0.00455797 138 135 80 0.00122743 -0.30072 0.953712 
0.0294955 0.0655752 0.0575659 74 39 33 -0.0526738 -0.23152 0.971403 
0.0328602 0.0424988 0.0527059 29 30 32 0.352213 0.0322539 0.935364 
0.0639399 -0.0656491 -0.0399441 79 79 56 0.572533 -0.131668 0.80924 
-0.0375974 -0.0506504 -0.0102241 93 89 49 0.0266927 -0.689795 0.723512 
0.0996709 -0.00663819 -0.0172991 101 95 50 0.22481 -0.0449619 0.973365 
0.0282763 0.013608 0.0383639 27 23 20 0.922103 -0.238746 0.304509 
0.0951884 0.0164043 -0.0279551 65 60 38 0.149733 0.320071 0.935486 
-0.0324725 -0.0673585 -0.028303 96 77 63 -0.425417 -0.0171221 0.904835 
-0.0585608 -0.0261514 -0.00425005 110 106 58 -0.835393 -0.13021 0.534008 
-0.0351906 -0.0284458 0.00099093 144 141 72 0.110449 -0.361347 0.925867 
-0.0748313 -0.0293031 -0.0237991 120 115 63 -0.0117252 -0.412989 0.91066 
0.0619604 -0.0230795 0.00293994 135 132 67 0.285509 -0.259684 0.922523 
0.0384474 -0.0513332 -0.0129061 112 109 59 -0.229593 -0.626303 0.745004 
0.0122651 0.0353505 0.0489499 124 50 42 -0.426363 -0.41671 0.80285 
0.0398458 -0.0398241 -0.00392103 135 126 65 -0.265966 -0.680044 0.683229 
-0.08842 0.0064508 -0.0179781 110 103 55 -0.133279 0.391421 0.910509 
0.0801722 -0.0163918 -0.0169591 115 113 59 0.207923 -0.186734 0.960155 
0.0509698 0.0068979 0.00229192 108 106 57 -0.187862 0.337586 0.922358 
-0.0226231 -0.0291616 0.00164193 66 68 52 -0.135169 -0.372063 0.918313 
0.0983364 0.00129714 -0.0179781 96 93 49 0.310014 0.286506 0.906535 
0.053795 -0.0617822 -0.0339091 103 99 58 0.030648 -0.430404 0.902116 
0.01486 -0.0342469 0.0350739 103 48 40 0.683946 -0.693337 0.226939 
0.00665518 -0.0255575 0.0439849 96 57 78 0.483424 -0.261018 0.835566 
-0.0635698 -0.0198267 -0.0115631 129 119 65 -0.521291 0.142437 0.841408 
-0.0252367 0.0432439 -0.0276071 51 49 37 0.0194706 0.390709 0.920308 
0.0345559 -0.0212552 0.00196695 106 103 60 0.315402 0.0213619 0.948718 
0.0216375 0.0412228 0.0541419 124 51 40 0.10407 0.00107289 0.994569 
-0.0117565 -0.0294946 0.00713295 130 55 47 -0.543612 -0.533514 0.647958 
0.0212771 -0.0135402 0.0407399 75 40 35 0.592594 -0.132183 0.794581 
0.0892339 0.00466514 -0.0179781 97 93 50 0.026532 0.322174 0.946308 
-0.0519603 -0.0037931 0.00131697 127 124 67 -0.671885 0.0618653 0.738067 
0.00358917 -0.00361869 0.0480779 121 53 49 0.301886 -0.377737 0.875317 
0.0201922 -0.0163663 0.0404439 93 42 35 0.551648 -0.314999 0.772308 
0.0441878 -0.00898566 0.00358796 118 114 60 -0.0873601 0.0828219 0.992728 
0.102916 -0.0141822 -0.0193411 116 113 57 0.583701 -0.259597 0.769352 
0.0734778 0.0201724 -0.0213931 34 33 25 0.896593 0.367795 0.246674 
-0.0888414 -0.0140183 -0.0169591 115 113 65 -0.280549 -0.14363 0.949033 
-0.0254015 0.016683 -0.00524008 113 107 56 0.313073 0.310106 0.897675 
0.0366069 0.0359987 -0.0159421 26 26 22 0.291773 0.754146 0.58833 
0.0410219 -0.0640706 -0.0413761 90 90 57 -0.473568 -0.447349 0.758691 
0.0103677 0.0200824 0.0524179 127 51 43 0.767053 0.171638 0.618199 
-0.0910851 -0.034474 -0.0234551 93 91 60 0.131597 -0.2057 0.969727 
0.020305 0.0402546 0.0541419 125 51 42 -0.0771168 -0.109345 0.991008 
0.04294 -0.0616141 -0.0388731 106 98 54 -0.346432 -0.736778 0.58064 
-0.0797696 0.0012284 -0.0159421 110 107 56 -0.216712 0.184803 0.958584 
0.0640306 -0.00649299 0.00391197 135 132 65 0.307156 0.060403 0.94974 
-0.0541534 -0.0619062 -0.0272601 98 95 56 0.289971 -0.310578 0.905239 
0.0967991 0.0141846 -0.0276071 61 63 40 0.241673 0.457507 0.855735 
0.00465819 0.00822115 0.0428079 125 52 42 -0.337548 -0.045265 0.940219 
0.0557028 -0.0648603 -0.0370941 90 89 56 0.297943 -0.690905 0.658695 
0.00567314 0.0571385 0.0492399 67 39 39 -0.402242 -0.177332 0.898195 
0.09285 -0.00942849 -0.0162811 129 119 59 0.0608865 -0.0763849 0.995218 
-0.0476064 -0.0518736 -0.0149281 108 101 58 0.0125245 -0.694416 0.719465 
0.0041199 0.0433839 0.0457449 107 46 41 -0.771788 0.178105 0.610428 
0.0189437 0.0364148 0.0529939 120 51 44 0.165714 -0.17856 0.969874 
-0.010014 0.0308252 -0.021736 105 49 38 0.165108 0.460257 0.872297 
-0.018441 -0.000859314 -0.00755906 47 42 32 0.144467 -0.0943216 0.985004 
0.0167022 0.0409024 0.0529939 123 49 38 -0.211971 0.0248681 0.97696 
0.0271768 -0.024478 0.00229192 34 29 23 0.518711 -0.29483 0.802505 
0.0598981 -0.00522398 0.00455797 140 135 68 0.0866764 0.107479 0.990422 
-0.013731 0.0091927 -0.00789106 102 71 44 -0.0960166 0.20575 0.973883 
0.046651 -0.0275746 0.00099093 148 140 65 0.00567917 -0.173783 0.984768 
-0.0286149 0.011406 -0.000967019 121 117 58 0.347144 0.250471 0.903745 
-0.0667719 -0.0245703 -0.0169591 118 114 61 -0.284189 -0.374408 0.882641 
-0.0260237 -0.0499357 -0.0102241 85 80 51 -0.22889 -0.602588 0.764524 
0.0309334 -0.00563434 0.00358796 31 29 22 0.233866 -0.0502016 0.970972 
-0.0889659 0.0014007 -0.0169591 117 107 59 -0.0764992 -0.0290913 0.996645 
0.109091 -0.00738255 -0.021736 100 94 44 0.366936 -0.0733872 0.927347 
-0.0406678 -0.049545 -0.0105581 100 94 53 -0.308784 -0.667684 0.677385 
-0.083344 -0.0371614 -0.0272601 81 81 51 0.111385 -0.273877 0.955293 
-0.0371566 -0.02054 0.00391197 114 115 63 0.0012226 -0.297091 0.954848 
0.0325039 -0.0152815 0.00326395 81 73 41 0.219123 0.0472144 0.974554 
0.0722129 0.0418581 -0.0332051 30 31 26 0.258871 0.69403 0.671795 
-0.0407709 -0.0105564 0.00616896 126 122 70 -0.277611 0.0865114 0.95679 
0.0364283 -0.0177841 0.00261593 133 124 69 -0.181792 -0.171478 0.96827 
-0.0186576 0.00107242 -0.00689506 46 44 30 0.228328 -0.164977 0.959505 
-0.0156576 0.0217129 -0.0122341 47 40 27 0.313091 0.227313 0.922118 
0.0483179 0.00165455 0.00293994 104 106 58 -0.134261 -0.0122056 0.990871 
0.0558075 -0.0114642 0.00488097 104 108 61 -0.0341636 0.027952 0.999025 
0.027832 0.0495834 0.0552859 81 40 32 0.260984 -0.249699 0.93249 
0.0387723 0.0288916 -0.00922304 56 50 35 0.273427 0.576883 0.769704 
0.0361655 0.0266276 -0.00656408 42 37 27 0.241675 0.227865 0.943224 
0.0947972 0.0282417 -0.0511611 45 43 32 -0.106899 0.296942 0.948893 
0.0822979 -0.030229 -0.020708 123 117 61 0.00394365 -0.445632 0.895208 
-0.0876936 0.00697809 -0.0179781 111 105 57 -0.0921124 0.491739 0.865857 
0.10752 -0.00522511 -0.020708 72 68 37 0.506949 0.126374 0.852662 
0.0461553 -0.00427908 0.00326395 128 123 65 -0.105413 0.011954 0.994357 
0.0168359 0.000279462 0.044866 120 52 43 0.435468 -0.28467 0.854009 
0.0599196 0.0196206 -0.00491005 93 87 46 0.138844 0.436573 0.888891 
0.0246634 0.0251663 0.0472049 92 43 34 0.415126 -0.421538 0.806211 
0.0765105 0.0144896 -0.0203661 35 34 24 0.712327 0.533 0.45662 
0.00766812 0.03022 0.0474959 125 52 42 -0.0875627 -0.120253 0.988874 
0.08524 -0.0281144 -0.0200241 121 116 61 0.186459 -0.318242 0.929492 
0.0508912 -0.0320317 1.29369e-05 131 125 65 0.0576051 -0.303387 0.951125 
0.087796 0.00359702 -0.0176391 99 95 52 0.0537578 0.187555 0.980782 
0.0283469 -0.0033679 0.00520295 23 22 17 0.787196 -0.0884326 0.61033 
-0.0301021 -0.00912538 0.00520295 141 136 72 0.149778 0.137399 0.979126 
0.0618794 -0.019932 0.00358796 124 127 66 0.253699 -0.207073 0.944858 
-0.0860545 -0.0307588 -0.0237991 113 112 61 -0.0466263 -0.406315 0.912543 
-0.0260619 0.00216927 0.000338974 126 123 65 0.371113 0.134824 0.918748 
0.027836 0.0607697 0.0552859 94 44 37 0.315277 -0.680675 0.661273 
-0.0358048 0.00304154 0.00455797 124 119 62 0.149391 0.110525 0.982581 
0.0119486 0.000404295 0.0480779 122 49 43 0.200148 0.11455 0.973046 
0.0247166 -0.04674 -0.0166201 51 46 31 0.0118132 -0.426589 0.904368 
0.0646104 0.00158364 0.00293994 115 111 57 0.278333 0.164284 0.946331 
-0.0702519 -0.00987219 -0.0142531 146 132 67 0.0450046 0.0823254 0.995589 
0.014619 0.0423936 0.0532809 123 51 41 0.0798391 -0.200212 0.976494 
0.018949 0.072928 0.0538549 84 37 33 0.291895 0.300695 0.907954 
0.0550148 -0.0301597 0.000664952 134 129 67 0.0237974 -0.309367 0.950645 
-0.0586544 -0.0280947 -0.00623303 103 102 56 -0.83789 -0.359994 0.410299 
-0.016105 -0.0332868 0.00326395 101 47 37 -0.314611 -0.143005 0.938386 
0.0553345 -0.0384549 -0.00260603 127 122 62 0.0576715 -0.552803 0.831314 
0.0744486 0.00234386 -0.0122341 40 40 28 0.757317 0.123492 0.641265 
0.0373294 0.037934 -0.0179781 28 26 22 0.341336 0.474695 0.811267 
-0.0632951 0.0159763 -0.0186591 97 91 50 -0.638206 0.3995 0.658098 
0.0287751 -0.0375995 -0.0102241 73 64 38 -0.308204 -0.714841 0.627704 
-0.019697 0.0229434 -0.0108931 54 56 39 0.427364 0.169497 0.888049 
0.030791 0.0538746 0.0547139 39 29 29 0.432119 -0.0471158 0.900585 
0.0816622 0.0400655 -0.0570611 21 22 22 0.245235 0.234151 0.940762 
-0.00176276 -0.0213512 0.0353739 66 62 123 0.511708 -0.538552 0.669415 
0.106015 0.0107472 -0.026912 42 46 33 0.204473 0.516485 0.831525 
-0.0562371 0.0120949 -0.00689506 93 88 47 -0.659949 -0.176088 0.730384 
0.0874363 -0.0111307 -0.0166201 121 117 61 -0.0327593 -0.132167 0.990686 
-0.0334994 -0.0179775 0.00455797 137 136 76 0.18342 -0.323436 0.928303 
-0.0295517 0.000180977 0.00358796 127 121 62 0.356829 0.302627 0.883793 
0.0535427 -0.0597324 -0.0328531 102 99 58 0.129334 -0.622887 0.771547 
0.0999214 -0.0285116 -0.022423 109 106 55 0.357731 -0.420768 0.833656 
-0.0299508 0.0199349 -0.00524008 92 88 52 0.208171 0.417819 0.884359 
0.0866071 -0.0238248 -0.0190001 102 102 61 -0.0263625 -0.159321 0.986875 
0.0145466 0.0677561 0.0535679 121 51 44 -0.517288 0.259421 0.815545 
-0.0876839 -0.0278426 -0.021736 119 119 64 0.283618 -0.697027 0.65857 
-0.0136827 0.00285298 -0.00922304 113 61 43 0.646807 0.00137912 0.762653 
0.0721604 0.0146886 -0.00889003 45 47 31 0.933947 -0.202425 0.294563 
-0.0882535 0.0216612 -0.0403021 62 61 39 -0.0792539 0.885697 0.457448 
0.0129994 -0.0320035 0.0410369 125 54 45 0.697301 -0.104669 0.709095 
0.0974496 0.00404236 -0.0190001 88 85 44 0.405056 0.40188 0.821232 
-0.0932204 -0.0166047 -0.0200241 103 98 67 -0.265126 -0.419657 0.868099 
-0.0470459 0.0317471 -0.011228 72 72 45 -0.225515 0.520064 0.823818 
-0.038717 -0.0393181 -0.00194907 117 113 61 -0.00394818 -0.454041 0.890972 
0.0879943 0.00484989 -0.0176391 97 93 49 0.0717439 0.316978 0.945716 
-0.0295779 0.0250245 -0.00755906 84 82 49 0.228259 0.41922 0.878722 
-0.032269 -0.021314 0.00391197 142 137 72 0.0340699 -0.0978136 0.994621 
0.0522889 -0.0628691 -0.0342621 93 95 58 -0.0768977 -0.485154 0.871041 
0.0372088 0.00343611 0.00196695 108 103 54 0.116741 0.0532702 0.991733 
0.0168293 0.0744435 0.0538549 71 35 31 0.117147 0.510528 0.851844 
0.0379685 -0.0306049 0.000664952 140 123 61 -0.0432505 -0.258267 0.965105 
-0.0363888 -0.0655568 -0.0300471 87 78 58 -0.250395 -0.40333 0.880129 
0.0992467 0.0268706 -0.0511611 41 41 30 0.12933 0.0121592 0.991527 
-0.058204 -0.0528157 -0.0159421 121 116 91 -0.218569 -0.518146 0.826893 
0.0497799 -0.0381845 -0.00162208 129 122 65 -0.0243564 -0.35509 0.934515 
0.021627 0.0453946 0.0535679 119 51 42 -0.00318305 -0.0859424 0.996295 
0.00749562 0.0378144 0.0501099 125 54 47 0.210881 -0.459151 0.862965 
-0.0513697 -0.0114001 0.00391197 128 124 71 -0.178966 -0.0864393 0.980051 
-0.0396011 -0.0201531 0.00391197 124 124 66 -0.0359243 -0.268813 0.962522 
0.0266972 -0.0300838 0.000338974 38 33 28 0.34124 -0.50465 0.793022 
-0.0194242 0.0126183 -0.00722706 58 55 38 0.551544 0.172827 0.816045 
-0.0191639 0.0164405 -0.00922304 44 45 29 0.617561 0.405636 0.673853 
0.0880982 -0.0028976 -0.0166201 89 90 54 -0.000977516 0.000977516 0.999999 
0.0240348 0.0548454 0.0558569 121 53 44 0.117298 0.110189 0.986965 
0.0295787 -0.0141921 0.00358796 38 31 23 0.386323 0.224743 0.894564 
0.0437801 -0.0296387 0.000664952 131 124 65 -0.0430992 -0.252438 0.966653 
0.0979876 0.00330251 -0.0186591 90 87 47 0.396014 0.415099 0.819064 
-5.35753e-05 -0.0633591 0.0431029 127 56 45 0.727612 -0.012521 0.685875 
-0.0382479 0.00342827 0.00455797 126 121 64 -0.0738576 0.0606294 0.995424 
0.0858982 0.0309837 -0.0511611 26 27 21 0.238284 0.131512 0.96225 
0.0313105 -0.060733 -0.0449761 91 89 63 0.0123218 -0.56817 0.822819 
0.0128282 0.00325859 0.0469129 123 51 41 0.223154 -0.11604 0.967852 
0.0167608 0.0731823 0.0547139 85 38 33 0.190792 0.220144 0.956627 
0.0820767 0.0426838 -0.0570611 23 23 23 0.31524 -0.221096 0.922898 
0.0461922 0.000109853 0.00293994 111 108 59 -0.056102 0.0759027 0.995536 
0.038012 -0.00360167 0.00229192 130 124 62 0.0999088 -0.055006 0.993475 
0.0786656 -0.00207057 -0.0156041 85 81 44 0.31277 0.179321 0.932748 
0.0809435 0.0159672 -0.0258721 64 63 37 0.149267 0.737287 0.658884 
0.0690341 -0.0166547 -0.000313041 102 104 58 0.620093 -0.0856803 0.779836 
0.0766431 -0.0397473 -0.0262191 53 47 31 0.449221 -0.656297 0.606198 
0.0550844 -0.019483 0.00391197 144 138 72 -0.100138 -0.0886277 0.991018 
0.0362401 0.0149853 -0.000640029 74 67 38 0.0699086 0.15996 0.984645 
0.040424 -0.0341628 -0.000640029 130 124 63 0.00124106 -0.321435 0.946931 
-0.0745261 0.0165472 -0.0231111 77 74 47 -0.0769482 0.669304 0.738993 
0.0222271 -0.00471352 0.0419229 82 40 33 0.72353 -0.27192 0.63448 
0.0407409 0.0421906 -0.022423 30 30 24 0.20282 0.433769 0.8779 
-0.0896895 0.00923269 -0.0196831 101 95 56 0.0153698 0.702819 0.711203 
0.0393272 -0.0157348 0.00326395 148 143 73 -0.137073 -0.0761517 0.987629 
-0.0107339 0.0289447 -0.0203661 97 51 40 0.294267 0.651247 0.699488 
0.0229293 -0.0102021 0.0401479 58 33 30 0.645214 -0.0888444 0.758818 
0.0310273 0.0521179 0.0541419 35 29 26 0.502609 0.00670146 0.864488 
-0.0425362 -0.0698962 -0.0314481 96 81 75 0.243571 -0.312751 0.918074 
0.106437 -0.0159942 -0.021736 69 71 42 0.354032 -0.183414 0.917072 
-0.0126252 -0.0225035 0.00649095 124 56 47 -0.640813 0.373945 0.670465 
0.109116 0.019025 -0.0332051 37 36 26 0.439367 0.53553 0.721224 
0.00859631 -0.0240821 0.0433969 66 63 132 0.408898 0.00649045 0.912557 
-0.0859464 -0.0241015 -0.0169591 122 119 63 0.272391 -0.664253 0.696111 
-0.061352 -0.000408499 -0.0125701 121 111 60 -0.497263 -0.14145 0.855992 
-0.00223972 -0.0300914 0.0451589 128 55 46 -0.0370441 -0.049745 0.998075 
0.0332574 0.0447764 0.0529939 32 32 35 0.446096 -0.324006 0.834277 
-0.0260283 0.00784651 -0.000967019 114 111 61 0.427641 0.249331 0.868882 
0.0137854 -0.0333628 0.0395539 119 53 45 0.583297 -0.408143 0.70227 
0.0341387 0.046386 0.0532809 35 34 38 0.38718 0.0247691 0.921671 
-0.0654214 0.00280152 -0.0159421 132 125 66 -0.221945 0.144069 0.964357 
0.0144788 0.0308624 0.0486599 123 49 40 -0.378486 -0.0461568 0.924455 
-0.0640067 -0.0153331 -0.0139161 141 129 74 0.10677 0.598207 0.794197 
-0.0891557 -0.0184853 -0.0179781 113 111 65 -0.370995 -0.361681 0.855307 
0.110145 -0.00883209 -0.0220791 116 113 51 0.346145 -0.0671232 0.935777 
-0.056625 -0.0647853 -0.0276071 108 102 90 -0.215782 -0.48136 0.849547 
-0.0332682 -0.0679068 -0.0286511 100 79 67 -0.419289 -0.00914338 0.907807 
-0.00214533 -0.0170299 0.0401479 57 71 156 -0.402785 -0.677938 0.614951 
-0.0424087 -0.0387339 -0.00194907 125 121 66 0.00942159 -0.510112 0.860057 
-0.0260775 -0.0210516 0.00326395 146 140 72 0.0463563 -0.120979 0.991572 
0.0390289 0.0242405 -0.00590205 81 72 41 0.202009 0.423186 0.883236 
0.0475545 0.0433865 -0.0272601 44 41 29 0.438546 0.585284 0.681997 
0.0344282 -0.018096 0.00196695 110 107 59 0.143769 -0.161272 0.976382 
-0.0479332 -0.0511262 -0.0139161 108 102 58 0.0859118 -0.744083 0.66254 
0.0394145 0.0208955 -0.00326306 98 92 47 0.0558337 0.688615 0.722974 
0.0966967 -0.0430399 -0.0325011 106 100 55 0.13926 -0.304209 0.942371 
0.0231509 -0.0478134 -0.0176391 40 36 26 -0.182544 -0.673418 0.71637 
0.00244866 -0.0177619 0.0395539 55 84 202 0.112366 -0.93277 0.342512 
-0.0682095 -0.035551 -0.0244891 117 110 61 -0.433933 -0.277533 0.857133 
-0.0411973 -0.0274776 0.00164193 117 122 66 -0.210025 -0.183606 0.960301 
0.0275028 0.0165628 0.0428079 38 27 22 0.756778 -0.277644 0.591778 
0.00507492 0.0507976 0.0480779 88 44 40 -0.651092 -0.279953 0.705483 
-0.0299339 0.0366091 -0.0227671 74 74 45 0.396466 0.470904 0.788076 
0.0661962 0.0517101 -0.0381611 20 23 23 0.350753 0.288065 0.891062 
0.0381479 0.0153252 -0.000967019 99 88 47 0.0593249 0.20461 0.977044 
0.00508503 -0.0224546 0.0338709 47 73 186 -0.310059 -0.355433 0.881777 
-0.0731888 0.0163297 -0.0227671 80 79 49 -0.00691768 0.640577 0.767863 
0.0663728 0.0108819 -0.00162208 111 110 54 0.40842 0.370574 0.834187 
0.105487 0.0161764 -0.0300471 41 44 32 0.326215 0.557619 0.763312 
-0.024485 -0.0377636 -0.00129407 104 103 59 -0.295618 -0.307384 0.904503 
0.0100858 -0.0332872 0.0431029 125 54 46 0.389939 -0.082879 0.917104 
0.0819201 -0.00962167 -0.0162811 115 114 62 0.145461 0.00333117 0.989358 
0.00926701 -0.0349427 0.0433969 124 51 43 0.527346 -0.171798 0.832101 
-0.000563687 -0.0676669 0.0401479 102 46 37 0.904133 -0.244717 0.350223 
0.0555421 -0.000764803 0.00391197 112 111 58 -0.0271988 0.206947 0.977974 
-0.0246037 0.0184754 -0.00590205 115 107 58 0.246758 0.286695 0.925698 
-0.0836186 -0.0205668 -0.0149281 120 111 62 -0.38266 -0.309482 0.870513 
0.0465265 -0.0319648 0.000338974 129 115 61 -0.0181594 -0.253021 0.96729 
0.0149764 -0.0263385 0.0401479 123 51 44 0.179214 -0.11 0.977641 
-0.0292221 -0.0409003 -0.00392103 110 102 58 -0.115157 -0.546629 0.829419 
0.05432 -0.000571346 0.00391197 108 109 60 -0.0407895 0.168985 0.984774 
-0.0720372 -0.016632 -0.01459 134 122 65 0.180771 -0.183372 0.96628 
0.0481815 -0.0521063 -0.00955605 109 106 58 -0.247936 -0.724856 0.642737 
0.0158528 0.0392653 0.0529939 123 48 38 -0.11415 0.0772532 0.990455 
0.0803281 0.0214084 -0.0290001 56 53 35 0.205586 0.537569 0.817774 
0.0865954 -0.00843831 -0.0162811 121 117 59 -0.000977516 -0.000977516 0.999999 
0.0965145 -0.0221775 -0.0190001 119 112 59 0.299565 -0.359779 0.88364 
0.0220998 0.0476134 0.0544279 124 49 43 0.0906305 -0.20485 0.974588 
-0.0710747 -0.0279133 -0.022423 119 117 63 -0.162045 -0.462777 0.871538 
0.0225766 0.0790748 0.051842 54 46 36 -0.126464 0.62637 0.7692 
0.0736558 0.0140128 -0.0135791 36 36 25 0.92746 -0.210337 0.309153 
-0.0892902 -0.0254857 -0.0166201 118 116 64 0.123976 -0.181581 0.97553 
0.0311312 0.071712 0.0581329 43 28 27 -0.0418187 0.125456 0.991217 
-0.0586247 0.017621 -0.0102241 92 88 47 -0.875126 0.228879 0.426343 
-0.0869441 0.0113788 -0.0203661 105 99 53 -0.350148 0.524415 0.776135 
0.0732128 0.00704086 -0.0132421 42 42 28 0.875267 0.00666109 0.483595 
0.0878756 -0.0240259 -0.0186591 95 99 58 -0.0538152 -0.127096 0.99043 
-0.0838734 0.0167575 -0.0244891 68 68 44 0.167051 0.855952 0.489327 
0.0899334 0.0205563 -0.029349 68 61 38 -0.149441 0.647576 0.747203 
0.00370659 0.00172333 0.0472049 125 52 44 -0.286007 0.627937 0.723806 
0.0673149 -0.000701919 0.00196695 126 125 63 0.685225 0.086201 0.723212 
-0.0384605 -0.0152993 0.00584793 148 148 102 -0.0631673 -0.305523 0.950087 
0.0987449 -0.0315632 -0.0241441 109 111 58 0.469522 -0.680055 0.563093 
0.107925 -0.0304374 -0.0272601 78 71 40 0.150831 -0.199819 0.968154 
-0.066259 -0.00795207 -0.0149281 157 139 69 -0.107727 -0.0623683 0.992222 
0.103689 0.0218253 -0.0328531 46 47 35 0.0987509 0.355774 0.92934 
-0.0530334 0.0229758 -0.00590205 83 80 51 -0.262835 0.288687 0.92064 
0.0545612 -0.061233 -0.0335571 103 100 59 0.0904088 -0.438135 0.894351 
-0.0118852 0.0417997 -0.0279551 37 24 23 0.390274 0.307628 0.867785 
0.0669361 -0.042938 -0.00755906 104 99 55 0.612056 -0.500773 0.612056 
-0.034101 0.0225127 -0.00590205 93 90 53 0.0596384 0.280427 0.958021 
-0.082077 -0.037362 -0.0272601 84 82 50 0.0245586 -0.36838 0.929351 
-0.0154311 -0.0152893 -0.00623303 116 52 44 0.271507 0.541445 0.795689 
0.105302 -0.0345745 -0.028303 76 81 48 0.197354 -0.455546 0.868061 
-0.0475107 -0.0151388 0.00423497 146 144 104 -0.236101 0.00830507 0.971693 
0.0280637 -0.0177049 0.00616896 30 26 20 0.858408 -0.0427137 0.511187 
-0.0227463 -0.0140698 0.00164193 177 174 116 0.608777 0.441989 0.658814 
0.0472577 -0.0441971 -0.00524008 123 116 63 -0.108121 -0.433888 0.894456 
0.0250181 -0.00032486 0.0395539 41 28 25 0.767198 -0.0736857 0.637164 
-0.0371092 -0.0067633 0.00584793 135 129 67 -0.0539085 0.0759119 0.995656 
-0.0462269 -0.0216228 0.00326395 116 115 63 -0.12711 -0.389712 0.912122 
-0.0863594 0.0067653 -0.0176391 114 107 60 -0.172982 0.431728 0.885261 
-0.0371549 0.0236409 -0.00623303 91 88 52 0.026384 0.307813 0.951081 
0.00984847 -0.0129281 0.0439849 44 73 185 0.145307 -0.265285 0.953158 
0.0702559 0.0173968 -0.00590205 63 65 40 0.334738 0.239099 0.911473 
-0.0756117 -0.0231803 -0.0172991 123 116 63 -0.0153686 -0.697176 0.716736 
-0.0909318 0.0133181 -0.0220791 88 84 56 0.178957 0.277315 0.943965 
-0.0262297 0.0303636 -0.011228 79 78 47 0.29365 0.455235 0.840554 
-0.0512736 -0.0322519 -0.000967019 144 136 66 -0.167821 -0.256431 0.951882 
-0.042714 0.0375316 -0.0132421 60 59 40 -0.0582154 0.586414 0.807917 
0.0576599 -0.0517589 -0.011228 109 104 56 0.347584 -0.814205 0.465033 
-0.0222 -0.0110299 -0.00162208 133 126 69 0.680666 0.43769 0.58747 
0.084836 -0.0152016 -0.0172991 114 112 63 0.0659268 -0.178602 0.98171 
0.03537 -0.00883711 0.00293994 123 111 57 -0.0766479 0.101816 0.991846 
-0.0172688 0.0265423 -0.0149281 30 28 24 0.287165 0.656148 0.697859 
0.0346008 -0.0685998 -0.0460611 104 104 84 -0.584802 0.214479 0.782308 
0.0347889 -0.0125075 0.00293994 115 110 62 -0.0634776 0.0835231 0.994482 
-0.0671186 -0.000774264 -0.0152661 124 115 60 -0.0877906 0.307922 0.947352 
0.0579337 0.0428612 -0.0339091 54 53 35 0.157865 0.24542 0.956477 
0.0677944 0.00747163 -0.000640029 114 111 58 0.513596 0.298676 0.80437 
-0.0172496 0.0252077 -0.0135791 32 30 25 0.535954 0.583294 0.610345 
-0.0306795 0.0264811 -0.00789106 94 90 53 0.234131 0.375493 0.896765 
0.0606648 -0.0335887 -0.000640029 135 129 66 0.0647015 -0.352557 0.933551 
0.0136274 0.0262906 0.0477869 123 49 41 0.649546 -0.23008 0.724674 
-0.0706867 -0.0338924 -0.0251801 89 85 51 -0.29635 -0.356522 0.886041 
0.0247 -0.0382637 -0.0115631 40 34 27 0.279463 -0.494915 0.822776 
0.0444425 -0.0617305 -0.0363841 106 99 57 -0.391199 -0.837385 0.381772 
0.0733756 -0.0411029 -0.0227671 48 43 28 0.7358 -0.541562 0.406583 
0.104038 0.00571334 -0.0227671 79 77 43 0.333445 0.404786 0.851447 
-0.0316087 -0.0622736 -0.0279551 105 91 56 -0.24099 -0.292325 0.925457 
0.0100722 -0.0183726 0.0389599 45 72 183 0.218586 -0.297559 0.929343 
0.00886346 0.057102 0.050688 121 52 44 -0.592297 -0.274712 0.757442 
0.0721489 0.0192043 -0.0102241 45 45 31 0.81075 0.37899 0.446152 
0.103135 0.0131816 -0.0276071 67 68 40 0.148478 0.38887 0.909249 
0.0764579 -0.0377269 -0.0234551 52 47 29 0.437821 -0.590975 0.677541 
-0.0520942 0.00503453 1.29369e-05 120 115 60 -0.477127 0.389789 0.787664 
0.0356621 0.00997874 0.00131697 70 65 41 0.190946 0.332387 0.923612 
-0.0656517 0.0118348 -0.0176391 121 111 56 -0.466891 0.523384 0.712799 
0.0752092 0.0193028 -0.022423 27 28 22 0.774263 0.515637 0.366926 
0.0360456 0.0137567 -0.000640029 74 67 38 0.0650564 0.219719 0.973392 
0.0322252 0.041988 0.0529939 28 28 30 0.239992 0.0107459 0.970715 
-0.0419858 -0.0166298 0.00488097 129 130 88 -0.132168 -0.249941 0.959198 
0.0231163 0.0433679 0.0538549 120 50 42 -0.0273992 -0.0111626 0.999562 
0.0587112 0.00376252 0.00326395 124 121 62 0.055892 0.119769 0.991227 
-0.0135154 -0.00480817 -0.00855708 122 52 45 0.694788 -0.0768763 0.715095 
0.0318002 -0.0296336 0.000338974 72 65 38 -0.0878136 -0.25326 0.963405 
0.0212994 -0.0195492 0.0389599 59 35 30 0.54702 -0.226513 0.805892 
0.0967235 -0.0209264 -0.0186591 127 119 60 0.211884 -0.290464 0.933132 
0.0762004 -0.0357273 -0.0220791 54 48 30 0.563143 -0.459538 0.6868 
0.099923 -0.0130915 -0.0176391 111 104 53 0.223835 -0.155768 0.962099 
0.00602515 0.0339979 0.0483689 122 55 47 0.045936 -0.259476 0.964656 
-0.00322989 -0.0525289 0.0463289 132 57 48 0.136076 -0.513578 0.847184 
0.0529185 0.0391541 -0.0251801 66 64 41 0.347967 0.811923 0.468722 
0.0320178 -0.0367123 -0.00491005 85 75 43 -0.495076 -0.676324 0.545423 
-0.0450679 -0.0123884 0.00488097 123 130 90 -0.329785 0.0189531 0.943866 
