ply
format ascii 1.0
comment Created by CloudCompare v2.11.1 (Anoia)
comment Created 4/4/21 15:28
obj_info Generated by CloudCompare!
element vertex 668
property float x
property float y
property float z
property uchar red
property uchar green
property uchar blue
property float nx
property float ny
property float nz
end_header
0.0584103 -0.0148822 -0.0338728 240 211 100 -0.157981 0.186238 0.96972 
-0.0255078 0.00618371 0.0501959 158 166 90 0.171558 -0.769736 0.614878 
-0.00528028 0.0930094 0.019845 155 117 61 0.162848 0.53934 0.826192 
-0.0824523 -0.0149564 -0.0214375 240 216 90 -0.0442733 0.126009 0.991041 
-0.00243038 -0.00664459 0.0404301 63 115 255 0.140493 0.410126 0.901143 
0.000399473 0.0280964 0.0382448 176 68 52 0.0939644 0.0735865 0.992852 
0.00241577 -0.00720219 0.0388325 59 110 255 0.318796 0.093919 0.943159 
0.0101909 -0.0460581 0.00126827 24 25 23 0.503088 -0.590582 0.630964 
0.000399975 -0.0247593 0.037548 59 109 255 -0.15164 -0.310111 0.938529 
-0.00547145 0.0575763 0.0376632 184 69 53 0.39613 0.103518 0.912341 
-0.0125466 -0.0117226 0.0415381 58 109 255 0.383969 -0.00642089 0.923324 
-0.0167279 0.0814014 0.0362015 183 73 54 -0.290332 0.180254 0.939796 
-0.00527689 -0.0138764 0.0397933 55 103 254 0.130759 -0.0636436 0.989369 
-0.00911564 0.00313711 0.0364113 61 111 255 0.338746 0.528187 0.778634 
0.0517706 -0.0297584 -0.0350048 209 194 84 -0.273118 -0.190771 0.942875 
0.00894557 0.0770584 -0.0637903 79 77 45 0.658593 0.185757 0.729212 
0.0263197 -0.000601387 -0.0152406 144 145 75 0.288786 0.141035 0.946949 
-0.0453272 -0.0290194 -0.00621434 180 168 86 0.194782 0.0641207 0.978748 
-0.0194051 0.0392799 0.0391213 179 71 56 -0.293781 -0.165337 0.941465 
-0.0197709 0.0735774 0.0375203 191 73 57 -0.317071 0.122781 0.94042 
-0.00401562 0.0175281 0.0353082 181 73 58 0.217716 -0.503944 0.835847 
0.00262337 0.044763 0.0380172 175 68 55 0.181052 0.210126 0.960764 
-0.0163728 -0.0165719 0.0438242 58 107 254 0.872629 -0.137024 0.468768 
-0.0180024 0.0452267 0.039716 182 70 53 -0.128603 -0.0908477 0.987526 
0.0300891 -0.0442743 -0.0178144 55 55 34 0.824342 -0.405024 0.395494 
-0.0236732 0.0375378 0.0361965 179 72 56 -0.551135 0.118414 0.825971 
-0.0211904 0.0535572 0.0395057 184 73 57 -0.157685 -0.00111833 0.987489 
0.0352918 -0.0405029 -0.0256503 117 116 60 0.718317 -0.251016 0.648854 
-0.0682911 -0.0175389 -0.0199327 239 213 94 -0.31545 -0.0137152 0.948843 
-0.00706226 0.0227324 0.0395463 177 66 52 0.149013 0.0261625 0.988489 
0.0366026 -0.0148257 -0.0205 96 88 48 0.477673 -0.18601 0.858621 
-0.00458873 0.00205361 0.0363731 63 116 255 0.0504696 0.33517 0.940805 
0.0622257 -0.0101933 -0.035203 215 183 86 0.346928 0.591244 0.72806 
0.00690717 -0.0253824 0.0372282 59 111 255 0.403425 -0.220184 0.888126 
-0.00348613 0.0506728 0.0377248 191 71 55 0.309603 0.10763 0.944755 
0.0334953 -0.0164768 -0.0175403 80 85 46 0.833292 -0.376478 0.404832 
0.0782726 -0.0339496 -0.0385531 167 162 74 0.488332 0.134762 0.862189 
-0.0677356 -0.0326576 -0.0200744 178 167 77 -0.334206 -0.18755 0.923651 
0.00929207 0.028605 0.0364751 175 75 57 0.141826 -0.0917695 0.985629 
0.0449638 -0.0143425 -0.0329773 237 220 101 0.68813 -0.189351 0.700445 
0.0375493 -0.00899929 -0.0184941 122 109 61 0.680843 0.261863 0.684018 
-0.021483 0.0234377 0.042028 177 70 58 0.22857 0.422781 0.876933 
-0.0767958 -0.00793079 -0.0257696 236 214 90 0.339463 0.719532 0.605837 
-0.0162245 -0.00308799 0.0443699 58 106 255 0.450386 -0.0906349 0.888222 
-0.0293426 -0.0400601 0.00340287 60 106 250 -0.423058 0.0581198 0.904237 
0.028551 -0.0352767 -0.0156884 85 92 49 0.659178 -0.146316 0.737615 
0.0399148 -0.0460848 -0.0401051 97 98 54 0.151923 -0.780675 0.606189 
0.00655317 -0.00837669 0.0372076 65 114 254 0.304948 0.0186703 0.952186 
-0.00207879 0.00444401 0.034862 62 117 255 -0.0339003 0.478672 0.877339 
0.000678572 0.0456005 0.0378483 168 63 49 0.176244 0.126246 0.976217 
0.0176349 0.0614005 -0.0711324 25 25 27 0.639055 0.152588 0.753874 
-0.0225029 -0.0497289 0.00430594 158 77 54 0.142191 0.198556 0.96972 
-0.0252157 -0.0200178 0.0487583 144 94 73 0.160313 -0.305553 0.938582 
-0.0104684 -0.0422579 0.00560816 29 43 76 -0.0208975 -0.619961 0.784355 
0.00509977 -0.0444092 0.00549267 32 26 26 -0.0499286 -0.69472 0.717545 
-0.00801618 -0.010182 0.040607 59 108 255 0.172022 -0.0242447 0.984795 
-0.0241776 -0.00810449 0.0482803 156 73 77 0.486781 0.250301 0.836895 
-0.00238439 0.0478868 0.0379268 189 71 55 0.221472 0.141172 0.964894 
-0.0148551 -0.0433326 0.00494418 35 52 102 -0.00105878 -0.0857615 0.996315 
0.00399757 0.00775561 0.0311705 66 113 229 0.154466 0.272666 0.949628 
0.0784132 -0.0282837 -0.0411208 195 187 82 0.821987 0.38317 0.421328 
0.0112977 0.00911021 0.0304074 118 58 41 0.239542 0.193528 0.951402 
-0.037242 -0.0492362 0.00287517 169 160 79 -0.465032 0.085186 0.881186 
0.0434432 -0.0146701 -0.0294404 214 192 93 0.790084 -0.224192 0.57053 
0.00325117 -0.0174948 0.0381889 60 111 255 0.145405 -0.0593253 0.987592 
-0.0272141 -0.0422438 0.00448456 47 77 166 -0.076246 -0.236238 0.968699 
-0.073345 -0.0136575 -0.0217614 252 227 93 -0.296269 0.177762 0.938416 
0.00532997 0.0691288 -0.0537608 45 42 30 0.564446 0.441234 0.697649 
0.00345637 0.0925234 -0.0686939 172 166 74 0.760612 0.519561 0.389264 
0.0120656 -0.0189259 0.0309523 137 60 47 0.900261 -0.0415918 0.43336 
-0.0882782 -0.0330003 -0.0275966 182 170 75 -0.302673 0.0211747 0.952859 
0.0761251 -0.0140448 -0.0410006 242 223 90 0.50566 0.132608 0.852481 
0.0126585 -0.000795188 -0.00404987 54 46 35 0.676796 -0.129981 0.724605 
-0.00176325 0.0137866 0.0324844 160 72 69 -0.105215 -0.531842 0.840282 
0.0708111 -0.0161974 -0.0366428 239 217 94 0.57563 0.545245 0.609391 
0.0593145 -0.0194052 -0.0345173 243 207 102 -0.0870324 -0.0182661 0.996038 
0.0757137 -0.0212533 -0.0393083 244 227 94 0.733025 -0.0295461 0.67956 
0.0256925 -0.0312925 -0.0143095 148 150 76 -0.0713049 -0.0223493 0.997204 
0.0121812 -0.0211214 0.0294665 126 58 45 0.931268 -0.218376 0.291638 
0.0317598 -0.0415453 -0.0178279 38 38 27 0.837081 -0.142701 0.52814 
0.00561137 0.0438113 0.0370924 184 79 61 0.28377 0.103308 0.953311 
-0.0338561 -0.0398182 0.00182859 66 108 251 -0.275574 -0.169689 0.946184 
0.0283318 -0.0459919 -0.0152106 125 130 61 0.445806 -0.619454 0.646169 
0.0140903 0.0483234 -0.0611735 87 88 52 0.882231 0.105868 0.45876 
0.00467557 0.0187852 0.0350485 179 72 58 0.203038 -0.272099 0.940605 
-0.0557855 -0.0214813 -0.0115455 221 199 89 -0.529339 0.274879 0.802647 
-0.010728 0.00667511 0.0365318 67 118 255 0.740763 -0.123709 0.660278 
-0.0233389 -0.0174055 0.0499065 134 76 125 0.467664 0.0648383 0.881525 
0.065942 -0.00365819 -0.0426254 113 114 66 -0.702967 0.234322 0.671514 
-0.0504429 -0.0169746 -0.0113944 200 184 87 0.0507745 0.248919 0.967192 
0.0275094 -0.0257699 -0.01488 183 180 85 0.214613 0.132366 0.967688 
-0.00823107 -0.0211472 0.0387595 56 107 255 0.300439 -0.133379 0.944429 
0.00466097 0.0153211 0.0336334 154 74 68 0.0823985 -0.376872 0.922593 
-0.0248469 0.0172457 0.046307 146 125 76 0.132888 0.441532 0.88735 
0.0285958 0.00412771 -0.0166187 167 167 85 -0.0136423 0.0619151 0.997988 
-0.010459 0.0714464 0.0386297 197 74 57 0.0819873 0.0730024 0.993956 
0.0309865 -0.0484248 -0.021998 49 50 32 0.656814 -0.630209 0.414042 
0.0130392 0.0715164 -0.0661276 61 60 44 0.864264 -0.028582 0.502226 
0.0624169 -0.00829379 -0.0394101 197 178 82 0.337288 0.815508 0.470302 
-0.0117357 -0.0507869 0.00381611 149 74 54 0.323419 -0.0998207 0.940976 
0.0206486 -0.0422041 -0.0132713 152 162 82 0.711009 -0.0295667 0.702561 
0.0246838 -0.0157576 -0.00943284 184 186 97 0.241778 -0.137226 0.960579 
-0.094009 -0.0181091 -0.0282228 217 201 88 -0.465946 -0.12473 0.875978 
-0.0137362 -0.0176718 0.0417318 55 104 254 0.291939 0.0012215 0.956436 
0.0357764 -0.033738 -0.0227974 161 152 65 0.933686 -0.042973 0.355504 
-0.0716399 -0.0201901 -0.0209093 223 207 92 0.0112502 0.0378415 0.99922 
-0.0246232 0.00600911 0.0487442 153 123 82 0.431387 -0.641251 0.634589 
-0.00435856 0.0460497 0.0386559 186 70 56 0.180592 0.0126529 0.983477 
-0.0080429 -0.00277679 0.0402648 56 106 255 0.159474 0.295777 0.941851 
-0.0108047 0.00880231 0.0379907 66 116 255 0.755325 -0.0153012 0.655172 
0.0148882 0.0188673 -0.0182154 195 176 83 0.0250929 0.225836 0.973842 
-0.0517432 -0.0104221 -0.0109231 210 194 88 -0.183693 0.102326 0.977643 
0.0295481 0.012339 -0.0226652 45 49 38 0.266301 0.515472 0.814477 
0.0110741 -0.0235734 0.0314973 126 57 58 0.869869 -0.0257839 0.492609 
-0.0153625 0.0853454 0.0349458 160 64 45 0.161882 0.358956 0.919209 
0.0358795 -0.0261475 -0.0187008 83 71 41 0.745544 -0.114129 0.656612 
0.0213535 0.021584 -0.0254164 168 149 77 0.340325 0.821529 0.45746 
-0.0509105 -0.0312821 -0.0056324 188 173 85 -0.195375 -0.233103 0.952623 
-0.0062438 -0.0472417 0.00233588 86 41 43 0.435128 -0.541015 0.719699 
-0.00403307 0.00528561 0.0346922 64 117 255 0.100368 0.577477 0.810214 
0.0401954 -0.0263551 -0.0331994 217 198 86 0.633321 0.0646246 0.771186 
0.0107434 0.0538809 -0.0555082 80 77 45 0.813155 0.179528 0.553669 
0.0108214 0.0125314 0.0298208 116 57 40 0.664118 0.101606 0.740691 
-0.0124601 0.00704211 0.0399055 65 116 255 0.566311 0.0123409 0.824099 
-0.0249094 0.00123701 0.0470387 140 77 69 0.225349 0.162093 0.960699 
0.0561534 -0.031506 -0.0337166 197 187 81 -0.254188 0.0380668 0.966405 
0.0210896 -0.048518 -0.0116427 166 157 79 0.47965 -0.324515 0.815246 
-0.0100019 0.0263602 0.0395706 186 71 55 0.233086 0.0604298 0.970577 
-0.0343378 -0.0440274 0.00156894 184 175 114 -0.457835 0.328823 0.825992 
0.0141513 0.0804694 -0.0717589 33 36 31 0.277825 0.324864 0.904034 
0.0431736 -0.00251559 -0.0331865 175 170 83 0.931105 0.0648992 0.358932 
0.0166043 0.00952361 -0.0159201 157 155 78 0.178576 0.419582 0.889978 
0.00187577 0.0176681 0.0349121 163 67 56 0.0866507 -0.34527 0.934495 
-0.0106505 0.0141174 0.0365857 172 71 64 0.853901 -0.0513729 0.517894 
0.00765277 -0.00241269 0.0366151 64 112 236 0.274412 0.163566 0.947599 
-0.0029562 0.0216227 0.0379277 184 71 57 0.359781 -0.508211 0.782483 
-0.025162 -0.0494548 0.00453442 170 96 63 0.104759 0.145699 0.983767 
0.0754699 -0.0454285 -0.0451955 47 50 37 0.407432 -0.569085 0.714242 
0.0183183 -0.0421206 -0.00778311 193 193 89 0.268196 -0.03337 0.962786 
0.00149297 0.0340557 0.0376546 169 64 54 0.0654426 -0.118256 0.990824 
0.0198855 -0.0431943 -0.00979371 179 183 92 0.907782 -0.0117554 0.419278 
0.0741893 -0.0387445 -0.0386065 128 125 61 0.146785 -0.325122 0.934211 
-0.0166912 0.0129137 0.0416756 62 92 196 0.515119 -0.16181 0.841707 
-0.0166614 -0.0157755 0.0449238 60 109 255 0.90449 -0.118828 0.409607 
-0.0180746 0.057325 0.0399276 188 72 55 -0.125516 0.018883 0.991912 
-0.0668484 -0.0255079 -0.0194697 202 184 83 -0.304383 -0.0988257 0.947409 
0.0673365 -0.0193515 -0.0339819 56 57 50 0.0425419 0.0796297 0.995916 
-0.0551247 -0.0254553 -0.00788882 203 193 88 -0.645086 0.24447 0.723947 
0.0805675 -0.0260552 -0.0476222 214 204 87 0.85562 -0.119758 0.50356 
-0.0200569 0.0447285 0.0396011 183 72 54 -0.125782 -0.0233753 0.991782 
0.0358334 -0.0350988 -0.0218401 158 151 67 0.910215 -0.0439782 0.411795 
-0.020062 -0.0131511 0.0484068 62 114 255 0.568041 0.227526 0.790924 
0.0718262 -0.00697669 -0.0402252 208 194 84 0.24436 0.169583 0.954741 
0.00933467 0.0434711 0.0361858 170 73 51 0.141826 -0.0917695 0.985629 
0.0368912 -0.00125049 -0.0219915 145 136 71 0.355809 -0.087274 0.930475 
-0.00847987 0.0645628 0.0386918 192 73 54 0.141253 0.219007 0.965445 
0.00646827 0.00169281 0.0355616 65 113 229 0.374862 0.474611 0.796381 
0.0674917 -0.0259338 -0.0336689 80 88 55 0.0583213 -0.0307512 0.997824 
-0.0785195 -0.0125808 -0.0230337 251 223 92 0.180926 0.448637 0.875209 
0.0152916 -0.0179827 -0.00351029 125 117 67 0.891818 -0.0876514 0.443822 
-0.0121363 0.0574915 0.0399321 176 67 55 0.190304 0.0538597 0.980247 
0.0157496 -0.0445075 -0.00569012 194 170 74 0.805892 0.226513 0.54702 
-0.0375945 -0.0439455 -0.000340342 194 178 98 -0.426867 -0.235151 0.873206 
-0.0173372 -0.0453165 0.0040298 57 49 89 0.135859 0.0422418 0.989827 
-0.0130766 -0.00358299 0.0415158 59 108 255 0.490073 0.173228 0.854296 
-0.0735634 -0.0396461 -0.0232151 142 135 66 -0.278119 -0.298504 0.912987 
0.0303393 -0.036273 -0.016842 58 57 32 0.775551 0.0978567 0.623654 
-0.0118272 0.0285314 0.0393484 183 69 54 0.0842178 0.0729888 0.993771 
0.00459327 0.00122681 0.0362426 67 113 244 0.228493 0.323339 0.918283 
0.0440245 -0.00843969 -0.0333116 198 186 88 0.700932 0.444534 0.557749 
0.0275078 -0.0350172 -0.0140166 104 121 63 0.466274 -0.224838 0.855591 
-0.0162817 -0.03996 0.00886831 43 79 196 0.256187 -0.768561 0.586244 
-0.00370782 0.0392568 0.0386235 186 71 55 0.16164 -0.0101732 0.986797 
-0.0864283 -0.000334492 -0.0320821 208 194 83 0.383288 0.715581 0.58398 
-0.094682 -0.0159373 -0.0288103 202 193 88 -0.417103 -0.0692907 0.906214 
-0.0541589 -0.0123767 -0.011425 224 204 88 -0.332473 0.282232 0.899893 
0.00956437 0.0658253 -0.0594361 75 76 43 0.975895 0.0799914 0.203055 
-0.000559829 0.0755524 -0.0567927 32 32 25 0.252372 -0.00358822 0.967624 
0.0715756 -0.0183532 -0.0351159 250 228 103 0.504909 0.455246 0.73336 
-0.0625671 -0.0425236 -0.0205877 110 105 61 -0.193883 -0.5065 0.840159 
0.00282907 -0.0312078 0.0364364 61 110 254 0.200653 0.0824771 0.976184 
-0.0102479 0.0133648 0.0358652 155 71 73 0.787347 0.0524898 0.614272 
0.0137744 -0.0247201 -0.00117085 53 47 38 0.555154 -0.484712 0.675913 
-0.084513 -0.014069 -0.0216165 245 223 92 -0.234134 0.0656567 0.969985 
0.00813987 -0.0465404 0.00157672 48 36 28 0.363042 -0.64559 0.671874 
-0.0161305 -0.0126017 0.043272 57 105 254 0.731526 0.0440336 0.68039 
-0.00594061 0.0902364 0.023532 165 69 51 0.182612 0.856642 0.482511 
-0.0158984 -0.00993809 0.0431652 58 106 255 0.698755 -0.00138367 0.715359 
-0.00920622 0.00444461 0.0355615 62 114 255 0.310576 0.334582 0.889718 
0.0798806 -0.0295 -0.0451632 193 187 79 0.890468 0.321766 0.321766 
0.00408137 0.0692305 -0.0529151 35 33 27 0.306507 0.522492 0.795648 
0.0367288 -0.044128 -0.0312526 101 99 55 0.960362 -0.220606 0.170408 
0.0707307 -0.0119913 -0.0396056 224 205 87 0.15399 0.427429 0.890837 
0.0173743 -0.028557 -0.00846985 116 120 66 0.362167 -0.193251 0.91186 
0.0756837 -0.0240756 -0.0377951 227 210 87 0.92252 0.149334 0.355889 
0.0660547 -0.0494632 -0.0423716 67 70 42 0.0124462 -0.792408 0.609864 
-0.000340926 0.0102065 0.0315589 66 107 237 -0.0159175 0.275495 0.961171 
0.0159097 0.0130839 -0.0174437 153 151 78 0.0821077 0.243797 0.966344 
0.0424984 -0.0229834 -0.034111 208 189 86 0.481191 -0.186219 0.856608 
-0.0615317 -0.00387329 -0.020544 208 180 83 -0.557618 0.473892 0.681534 
0.0691149 -0.0298398 -0.034753 108 98 47 0.362167 -0.193251 0.91186 
0.0257903 0.00576891 -0.0173217 166 160 81 -0.228729 0.388102 0.892782 
0.00117747 -0.00706789 0.0391337 59 111 255 0.247073 0.0985733 0.96397 
-0.0748994 -0.0135636 -0.0223084 247 223 95 -0.240571 0.224075 0.944413 
-0.00336386 0.0223671 0.0386451 186 71 57 0.288298 -0.217982 0.932399 
-0.02071 0.00355191 0.0472139 65 114 255 0.16421 0.00792739 0.986394 
0.00138307 0.0218593 0.036646 170 65 51 0.242696 -0.429617 0.869786 
0.010767 0.055355 -0.0560449 81 78 45 0.807233 0.144202 0.572347 
-0.0976932 -0.0338794 -0.0304058 155 151 75 -0.457249 -0.0173301 0.88917 
-0.0162833 -0.00786269 0.0434298 57 105 254 0.663897 -0.0469135 0.746351 
0.0548641 -0.0351736 -0.035006 187 174 74 -0.0987348 -0.018445 0.994943 
0.00642057 0.0906964 0.0191254 199 187 81 0.131445 -0.574517 0.807869 
0.0415025 -0.0398009 -0.0347743 145 138 66 0.314048 -0.137311 0.939425 
0.000755071 0.0610747 0.0348014 175 69 55 0.221591 0.218872 0.950259 
0.0158612 -0.0210739 -0.00590008 168 154 83 0.864926 0.255994 0.431706 
0.0371012 -0.0235677 -0.0209516 168 143 67 0.849354 0.174036 0.498307 
-0.0197961 -0.0165426 0.0481988 59 111 255 0.282408 -0.140535 0.948945 
-0.00835014 0.0672399 0.0381901 191 71 55 0.238824 0.0180018 0.970896 
-0.0598672 -0.0270557 -0.0141509 209 190 87 -0.598522 -0.116175 0.792638 
-0.0215366 0.00292811 0.0468051 69 108 254 0.0987385 0.0162756 0.99498 
0.0123194 -0.0219953 0.0275155 100 51 39 0.73851 -0.0892062 0.668315 
0.00459027 -0.0176077 0.0382839 61 111 255 0.213277 -0.0176749 0.976832 
0.0109253 0.00376681 -0.00139667 31 28 24 0.944262 -0.195979 0.264503 
0.0493235 -0.0317843 -0.0355333 195 173 76 -0.0414503 -0.0478272 0.997995 
-0.00494046 0.0393715 0.0389238 181 68 54 0.141682 0.0283364 0.989507 
0.0407039 -0.0352239 -0.0336687 183 170 78 0.291879 -0.348757 0.890604 
-0.0175715 -0.00559389 0.0451637 61 111 255 0.531547 -0.0122351 0.846941 
0.0268036 -0.0277749 -0.0139592 188 182 84 0.235445 0.0843573 0.96822 
0.014314 0.067682 -0.0687473 32 33 30 0.869412 0.036851 0.492712 
0.00160887 0.0542552 0.0355629 178 68 56 0.133389 0.226632 0.964803 
-0.00615202 -0.0193337 0.0384249 56 105 251 0.342572 -0.191897 0.919685 
0.0794122 -0.0458244 -0.0529413 50 53 40 0.835121 -0.446547 0.3212 
-0.000486126 0.00040991 0.0375065 62 113 255 -0.0204217 0.515989 0.856352 
0.0376889 -0.0178274 -0.0207327 136 117 56 0.329081 -0.0972588 0.93928 
0.020382 0.00489731 -0.0158915 131 142 74 0.485976 0.271712 0.830662 
-0.00511026 0.0528403 0.0382934 186 71 53 0.295141 0.0236611 0.955161 
-0.00262169 0.00253751 0.0360907 64 117 255 0.0390105 0.445258 0.894552 
0.0338388 -0.00432499 -0.0180758 82 89 52 0.861105 -0.159898 0.482629 
0.00127047 0.043539 0.0383717 169 64 51 0.157308 0.0674178 0.985246 
0.0734355 -0.00279099 -0.0416982 182 177 79 0.562691 0.465848 0.682909 
-0.0147998 0.00863251 0.0404514 57 103 252 0.329165 0.0946183 0.93952 
0.0142383 0.0252713 -0.0207505 112 102 58 0.769704 0.576883 0.273427 
-0.00070823 0.0905704 0.0202637 183 76 58 -0.189911 0.00575489 0.981784 
0.00757857 0.0443114 0.036811 184 78 61 0.238268 0.0179599 0.971033 
-0.0223863 0.0222658 0.0439442 176 69 55 0.150527 0.567828 0.809267 
-0.0864084 -0.00174459 -0.0315705 211 196 86 0.380456 0.643975 0.663739 
0.0105588 0.0173193 0.0295831 111 55 37 0.562206 -0.143889 0.814383 
0.00820927 0.0449247 0.0364344 177 78 60 0.17548 -0.0632682 0.982448 
0.00500877 -0.0491362 0.00106225 147 72 51 -0.239297 -0.520278 0.819785 
-0.00317902 -0.000685988 0.0377672 64 117 255 -0.214627 0.264476 0.940206 
-0.0142211 0.0744504 0.0382394 146 56 44 -0.10201 0.0813791 0.991449 
0.0453586 -0.00292949 -0.036668 190 183 89 0.669164 0.394889 0.62951 
0.00128797 0.0448756 0.0379225 165 63 51 0.175917 0.191554 0.965588 
-0.0227391 -0.0237456 0.0471853 83 95 236 0.0658958 -0.23996 0.968544 
0.054844 -0.0429403 -0.0392485 137 131 61 0.324839 -0.785695 0.526463 
0.0138935 0.0344266 -0.0525265 58 55 38 0.614586 0.219384 0.75773 
-0.0330838 -0.0509352 0.00365184 108 106 64 -0.116327 0.223706 0.96769 
0.0489837 -0.0105695 -0.0365312 229 208 92 0.49276 0.0341246 0.869496 
0.0121194 -1.65882e-05 -0.00369513 42 36 31 0.805345 -0.0151952 0.592612 
-0.000351425 -0.0289081 0.0361175 59 109 254 0.135036 -0.0810215 0.987523 
0.0249943 0.017756 -0.0232195 107 111 63 0.285984 0.420565 0.86101 
0.0128389 -0.0314323 -0.00562664 62 54 37 0.960546 -0.0309854 0.276389 
-0.0151104 -0.0310797 0.04148 53 100 246 0.585476 -0.422936 0.691624 
0.0163789 -0.0232402 -0.00576579 186 169 82 0.933283 -0.0165974 0.358759 
-0.0997963 -0.0362493 -0.0340076 138 134 69 -0.617373 -0.328941 0.714597 
0.0414645 -0.00480699 -0.02598 194 183 90 0.924575 -0.104849 0.36629 
0.0650406 -0.0477104 -0.0406611 94 94 49 -0.104253 -0.621112 0.776757 
-0.02364 -0.0454849 0.00361487 47 28 31 -0.264746 -0.0856907 0.960503 
0.0767666 -0.0243534 -0.0400203 227 210 88 0.890972 0.144443 0.43047 
-0.0679091 -0.0146801 -0.019602 240 209 92 -0.416631 0.0277754 0.908651 
0.00174327 0.0569401 0.0350577 179 71 57 0.224308 0.158721 0.961506 
-0.00912538 -0.0279349 0.0378388 60 111 255 0.42354 -0.128904 0.896659 
-0.0688998 -0.034794 -0.0209302 160 156 74 -0.245393 -0.191162 0.950389 
0.00519377 -0.00958339 0.0375639 60 113 255 0.337994 0.00879539 0.941107 
0.0157165 0.0263309 -0.02735 101 95 59 0.598247 0.789209 0.138746 
-0.054158 -0.0486312 -0.0110496 112 104 67 -0.579964 -0.361048 0.730264 
-0.0216751 0.0273935 0.0399024 178 70 56 0.0551325 0.410132 0.910358 
0.00671667 -0.0131551 0.0370461 63 113 255 0.278054 0.0259517 0.960215 
0.065258 -0.0264754 -0.0337938 190 181 83 -0.0264536 0.0603141 0.997829 
-0.0729319 -0.0186532 -0.0210665 231 214 92 -0.10012 0.153196 0.983111 
0.0654062 -0.0461273 -0.0393187 103 102 53 -0.150179 -0.416209 0.896781 
-0.0659318 -0.0349979 -0.0202834 152 145 72 -0.226101 -0.335551 0.914485 
0.0334346 -0.0295303 -0.0187093 52 52 31 0.602667 -0.585785 0.541893 
0.011375 0.0768814 -0.0660062 72 72 48 0.761965 0.327017 0.558989 
0.0120023 0.0730864 -0.0648345 68 70 48 0.662857 0.142792 0.735004 
0.0122644 0.00276501 -0.00423994 43 38 30 0.920487 -0.0938163 0.379344 
0.00624717 -0.0323001 0.0287833 60 108 254 0.676518 -0.660294 0.326091 
0.0190103 -0.0309472 -0.00954814 145 154 74 0.577495 -0.190467 0.793865 
0.015666 0.0818514 -0.0722045 27 29 31 0.199867 0.271544 0.941444 
0.0109128 -0.040746 0.00529395 26 27 24 0.8461 -0.0177122 0.53273 
-0.0179524 -0.0536095 0.00478945 107 72 55 0.0757404 0.43654 0.896491 
0.0310228 -0.0151762 -0.012945 160 167 81 0.563676 0.276312 0.77841 
0.0361725 -0.00329009 -0.0210591 100 91 55 0.58972 0.0850696 0.803115 
-0.00270714 0.0364683 0.03843 187 72 55 0.210066 0.0152562 0.977568 
0.00406927 -0.00810679 0.0378122 63 112 255 0.478316 0.0917125 0.873386 
-0.0035241 0.0668349 0.0365905 192 73 54 0.525879 0.0603008 0.848419 
-0.0850551 -0.0220391 -0.0230372 227 210 86 -0.208595 -0.389475 0.897105 
-0.0231954 0.0496779 0.0383892 183 75 58 -0.388857 -0.124044 0.912909 
0.0339628 -0.00290239 -0.0181329 68 71 44 0.715262 0.223813 0.662048 
0.00198567 0.0697523 0.0337022 189 73 56 0.115955 -0.0700321 0.990782 
-0.00478252 0.0346363 0.0387638 182 69 54 0.257092 0.0381333 0.965634 
0.0178835 -0.0178481 -0.00763346 235 221 105 0.313373 -0.058032 0.947855 
0.0138296 0.00668741 0.0278994 29 27 26 0.96334 -0.0358625 0.265877 
0.00598327 0.0795114 -0.0617259 85 82 43 0.781172 0.28363 0.556169 
-0.0805562 -0.0362392 -0.0242801 163 156 72 -0.552076 -0.13397 0.822961 
-0.0467228 -0.030269 -0.00582416 183 176 90 0.192709 0.122175 0.97362 
-0.00615011 0.061677 0.0385933 182 69 52 0.397565 -0.100423 0.912062 
-0.024345 0.01783 0.0455493 148 90 67 0.0971139 0.460235 0.882469 
-0.0741023 -0.0411812 -0.0245021 130 126 64 -0.366505 -0.433142 0.823445 
0.00984447 0.070259 -0.0600946 81 80 43 0.916144 0.235168 0.324618 
0.034329 -0.0223163 -0.0176565 68 66 36 0.741106 -0.0210144 0.671059 
0.0137346 0.0272356 -0.027078 60 60 41 0.507131 0.853887 0.11703 
-0.00788436 0.0826744 0.0367361 186 74 53 -0.044552 0.210719 0.976531 
-0.0176103 0.0626523 0.0397138 186 73 55 0.0818619 0.145928 0.985902 
0.0181415 0.0226297 -0.0243464 181 168 86 0.603804 0.676993 0.420833 
0.000144273 0.0219817 0.0369481 175 68 50 0.22115 -0.420037 0.880149 
0.01885 -0.020838 -0.00829386 153 159 80 0.334 -0.153834 0.929935 
-0.0165186 0.0403912 0.0396508 172 65 49 -0.119258 -0.0511107 0.991547 
0.0527966 -0.0328495 -0.0357089 197 187 83 -0.129118 -0.0983189 0.986743 
0.020213 -0.0454505 -0.0105367 203 201 125 0.889886 0.0761178 0.449787 
-0.0172716 0.00625191 0.0419428 59 109 254 0.500304 0.180707 0.846783 
0.0140791 0.0403306 0.0350814 27 24 25 0.352609 -0.0165485 0.935624 
-0.00907762 -0.0520652 0.00109947 157 80 57 0.57127 -0.334994 0.749286 
0.0158035 0.0638093 -0.0703987 25 25 27 0.675252 0.0559126 0.735465 
0.014168 -0.0339216 -0.00800646 127 118 63 0.673582 0.169541 0.719404 
0.0296964 -0.0252396 -0.0147577 174 172 82 0.144152 -0.219475 0.96491 
0.0109521 0.0313412 -0.0414654 52 50 38 0.82684 0.513899 0.22857 
0.0295982 -0.0396584 -0.0154168 59 60 36 0.495728 0.257902 0.829301 
-0.013544 -0.0285209 0.0414674 54 102 245 0.49514 -0.223956 0.839452 
0.00808597 0.0523541 0.0356938 179 76 58 0.218811 0.268984 0.93796 
0.0130191 -0.0381687 -0.00188119 43 41 34 0.955079 -0.0493352 0.292216 
-0.0848942 -0.0303217 -0.0266078 195 182 81 -0.462088 -0.133876 0.876671 
0.00450887 0.0256634 0.0370716 181 75 59 0.341354 -0.293654 0.892886 
0.0298251 -0.00946509 -0.0145981 171 173 84 0.496299 0.0597784 0.866091 
0.0393161 -0.00439069 -0.0225736 175 166 83 0.547778 0.189674 0.814839 
0.0257083 -0.0210724 -0.0121588 98 95 56 0.308919 -0.571421 0.760294 
-0.0428658 -0.048013 -0.00304835 125 129 73 -0.371566 -0.162472 0.91408 
0.0163756 0.0727764 -0.0717397 25 25 29 0.811815 -0.121846 0.57106 
-0.00387371 0.0628231 0.0367514 188 82 60 0.60619 -0.052527 0.793584 
0.00209197 0.0190222 0.0352569 168 67 56 0.17005 -0.308302 0.935966 
0.057037 -0.0213664 -0.0341234 242 216 94 0.136553 0.141474 0.980479 
-0.0796391 -0.0138037 -0.0217392 231 203 87 0.276875 0.394888 0.876016 
0.00845277 0.0409358 -0.0471396 52 49 34 0.629454 -0.055666 0.775042 
-0.0184545 -0.0501202 0.00417566 144 61 50 -0.143514 -0.215917 0.965807 
0.0201964 -0.0413607 -0.0124674 154 163 84 0.777297 0.0323288 0.628303 
0.000722076 -0.0343335 0.0372249 57 106 251 -0.0111863 -0.309488 0.950837 
0.00871747 0.0529712 0.0353166 165 71 52 0.157201 0.270063 0.949923 
-0.0238104 -0.00021769 0.0467972 151 78 119 0.223209 0.0810535 0.971395 
-0.0147635 0.0321554 0.0393726 156 62 50 -0.0422026 0.0703376 0.99663 
0.00311597 -0.0201501 0.0386931 56 111 255 0.147384 0.016876 0.988935 
-0.00245158 -7.23881e-05 0.0377877 65 117 255 -0.194061 0.36656 0.909931 
0.0121515 -0.00125179 0.0297476 95 52 38 0.753685 -0.00137785 0.657235 
0.0128235 0.0775534 -0.0697825 57 58 43 0.674286 0.365854 0.641474 
0.0108458 -0.0543281 -0.0142463 57 60 37 0.0350929 -0.23355 0.971711 
0.00898347 0.0725704 -0.0616803 83 80 44 0.691558 0.517412 0.504017 
-0.025041 -0.0480668 0.00447873 140 64 50 0.0971272 0.273251 0.957027 
-0.0481171 -0.0315176 -0.00543425 199 187 88 0.0573718 0.100119 0.99332 
-0.0605743 -0.00928069 -0.0154478 238 216 90 -0.266779 0.18743 0.945357 
0.0175156 -0.0220697 -0.00746409 217 205 94 0.601424 -0.0208346 0.798658 
-0.0127976 0.00435401 0.0396182 62 114 255 0.662058 -0.10764 0.741682 
0.0766082 -0.028631 -0.0384467 184 179 77 0.697729 0.117528 0.706655 
-0.0163157 -0.020036 0.0428288 59 105 248 0.630464 0.04392 0.774975 
-0.0516175 -0.0456604 -0.00800839 194 183 89 -0.354347 -0.394933 0.847624 
-0.000750228 0.0558121 0.0361142 182 71 52 0.363708 0.17124 0.915638 
0.0107696 0.0311686 0.0360647 136 64 45 0.172392 -0.0289249 0.984604 
-0.0118388 0.0467211 0.0400606 184 69 55 0.141991 -0.03067 0.989393 
0.0547496 -0.029969 -0.0343379 201 189 84 -0.119045 -0.12626 0.984828 
-0.0222878 0.0805304 0.0354805 181 110 71 -0.267522 0.378118 0.886261 
0.0111645 0.00293741 -0.00304259 33 29 25 0.913372 -0.123729 0.38787 
-0.0818243 -0.0143335 -0.0218614 234 213 89 -0.0189502 0.132651 0.990982 
-0.0182695 0.0304345 0.0392166 167 65 54 -0.0652952 0.293188 0.953822 
0.00509887 0.0445374 0.0374146 186 77 60 0.226191 0.0973002 0.969211 
0.0166092 0.0742544 -0.0713084 25 26 27 0.632304 -0.142681 0.761468 
-0.0458432 -0.0268606 -0.00634817 163 146 78 0.400744 0.24283 0.883424 
-0.00499211 -0.0531242 -0.0045387 131 77 55 0.795262 -0.575459 0.190802 
-0.0225155 -0.0223917 0.0475208 75 97 243 -0.0476209 -0.328198 0.943408 
0.000282773 0.0267585 0.0382985 177 68 51 0.153316 0.00559548 0.988161 
0.0312046 -0.0304506 -0.0152938 69 75 42 0.622544 0.079443 0.778542 
-0.00496717 0.0467737 0.0385818 180 69 55 0.210066 0.0152562 0.977568 
0.0517146 -0.0378303 -0.0350951 167 156 77 -0.196057 -0.0246538 0.980283 
0.0740898 -0.000279986 -0.0483013 153 151 76 0.446493 0.780956 0.436751 
0.00131467 0.0374643 0.0382649 169 65 53 0.00942288 -0.0659601 0.997778 
0.0398571 -0.0192653 -0.0272182 208 197 92 0.822054 -0.323457 0.468618 
0.0205018 -0.0181397 -0.00830711 168 165 83 0.150715 -0.145732 0.977777 
0.0781514 -0.0255841 -0.0445241 219 206 84 0.920772 -0.0518183 0.386644 
-0.0150486 -0.00668589 0.0426866 57 105 253 0.561293 -0.128169 0.817632 
0.0164582 0.0675132 -0.0724615 25 25 27 0.916459 0.0857904 0.390823 
-0.00976922 0.0290304 0.0394634 184 72 54 0.0859759 0.0315608 0.995797 
-0.0202369 0.0386664 0.0387063 181 71 56 -0.339095 -0.240131 0.909589 
-0.0148439 -0.0419818 0.00446346 28 44 84 -0.0158958 0.0731207 0.997196 
-0.0199603 0.0366014 0.0380439 184 71 53 -0.422324 -0.159993 0.892213 
-0.00364525 0.0837494 0.0322893 197 75 57 0.52812 0.397316 0.750486 
0.057542 -0.0155723 -0.0343559 249 218 105 -0.372063 0.135169 0.918313 
0.0652447 -0.00144819 -0.0437017 123 122 74 -0.715236 -0.0266984 0.698373 
-0.0780878 -0.0189723 -0.0218351 244 217 91 -0.237081 -0.0633043 0.969425 
-0.00865176 -0.00205249 0.0401907 60 110 255 0.231082 0.242152 0.942318 
0.0342289 -0.0454277 -0.0250467 61 58 36 0.940844 -0.0639408 0.332753 
0.00753588 -0.00375549 0.0366689 67 111 240 0.255934 0.0561807 0.96506 
0.013232 0.0895814 -0.0732075 48 51 40 0.22262 -0.0627271 0.972885 
-0.00215233 -0.0396694 0.0106332 57 104 249 -0.0528735 -0.896139 0.440613 
0.00332657 0.0715124 -0.0540047 33 32 26 0.0829448 0.49064 0.867406 
-0.0992993 -0.0258681 -0.0313262 177 168 79 -0.260419 0.0157463 0.965367 
-0.0219874 0.0468969 0.0389851 182 72 57 -0.224515 -0.00352641 0.974464 
0.0549464 -0.00818069 -0.0366986 218 193 88 -0.00586692 0.221769 0.975082 
0.0497241 -0.0235926 -0.0335984 230 204 89 -0.120868 -0.0210687 0.992445 
0.0104358 0.000495911 0.0331233 132 62 59 0.890929 0.0847842 0.446159 
-0.00590975 -0.0457711 0.00313412 47 39 56 0.235338 -0.512206 0.825991 
0.0221312 -0.0344357 -0.0130925 190 186 89 0.208789 0.264098 0.941626 
0.0816045 -0.0210315 -0.0487248 247 230 99 0.874156 0.00133053 0.485642 
-0.00960777 -0.0415856 0.00605351 29 46 92 0.0125496 -0.718118 0.695808 
0.0352351 -0.0160789 -0.0196492 68 63 36 0.58033 -0.210889 0.786602 
-0.0177934 -0.00694369 0.0448265 62 111 255 0.574448 0.00959698 0.818485 
-0.0113869 -0.058032 0.00248695 43 41 41 0.682976 -0.169598 0.710479 
0.0256351 -0.0248203 -0.0141733 180 171 80 0.31392 -0.0187602 0.949264 
0.0132794 0.0323055 -0.0510676 51 50 37 0.511425 0.609322 0.605946 
-0.0576868 -0.0256115 -0.0119136 212 198 88 -0.726588 -0.0739641 0.68308 
-0.000106329 0.0577745 0.0352862 172 67 52 0.264043 0.141973 0.954005 
-0.043747 -0.0486929 -0.00350097 140 144 75 -0.266277 -0.202812 0.942318 
0.0706162 -0.0444097 -0.0395109 48 46 33 0.438999 -0.338297 0.832367 
0.015255 -0.0355184 -0.00872436 144 142 78 0.804214 0.209861 0.556056 
0.0370041 -0.0184531 -0.0203064 108 92 49 0.382443 -0.0824346 0.920295 
-0.00776791 0.0840094 0.0366825 191 73 53 0.254287 0.547575 0.797182 
0.0144621 0.0864714 -0.0729821 32 33 32 0.0147043 0.157223 0.987454 
-0.087131 -0.0280682 -0.0277463 116 112 60 -0.508696 -0.0259121 0.860556 
0.0129342 0.0462868 -0.0554827 84 80 49 0.878109 0.0284134 0.477616 
0.0505098 -0.0229298 -0.0335762 233 207 90 -0.110657 -0.0164342 0.993723 
0.00970027 0.0408092 -0.0479762 61 57 38 0.715531 0.095502 0.692023 
0.0138919 -0.0142007 -0.00207197 64 57 38 0.625042 0.0526801 0.778811 
0.00795817 -0.025583 0.0361284 60 110 254 0.633995 -0.34389 0.692669 
0.0120641 0.0604041 -0.0623402 67 66 45 0.826701 0.168928 0.536683 
0.0206348 -0.0292348 -0.0125595 114 129 70 0.690551 -0.0738325 0.719505 
-0.0785521 -0.00978979 -0.0240421 238 214 94 0.163538 0.303713 0.938623 
-0.0694955 -0.0104103 -0.0216525 245 219 94 -0.407978 0.351705 0.84253 
-0.070193 -0.0332556 -0.0210877 172 160 77 -0.160351 -0.237214 0.958132 
0.00509437 -0.0420808 0.00748051 40 38 43 -0.273574 -0.567706 0.776445 
-0.0171054 -0.0438894 0.00439949 43 56 121 0.0167164 -0.134846 0.990726 
0.0813796 -0.00906259 -0.0478783 223 208 86 0.784735 0.00412295 0.619817 
0.00303677 0.0209898 0.035622 174 70 56 0.240131 -0.339095 0.909589 
0.0192456 -0.0550881 -0.0140866 58 62 37 -0.0149911 -0.541041 0.840863 
-0.00407422 0.0736104 0.0370199 192 73 57 0.420036 -0.0956517 0.902453 
0.0161926 0.04068 -0.0616322 79 76 48 0.86373 0.122566 0.488822 
-0.022729 0.0381561 0.0370097 182 71 56 -0.532679 -0.15283 0.832404 
0.0164899 -0.0397924 -0.00758091 161 151 75 0.146645 0.136786 0.979686 
0.0338459 -0.000136488 -0.0200327 59 61 41 0.648414 0.503573 0.570941 
-0.0694401 -0.0400424 -0.0233598 131 127 67 -0.141319 -0.161329 0.97673 
-0.064384 -0.0387957 -0.0208809 118 112 64 -0.2378 0.00118309 0.971313 
0.00567627 -0.0296903 0.0337962 61 109 255 0.637276 -0.670211 0.38039 
0.00464327 0.0492814 0.0363857 185 78 60 0.233077 0.105712 0.966695 
-0.000876624 -0.0398216 0.0103105 57 104 251 -0.01476 -0.876205 0.481712 
0.031269 -0.017441 -0.0141347 155 161 79 0.750128 -0.202612 0.629489 
0.00217617 0.0768164 -0.0580779 36 34 26 0.242217 0.190797 0.951277 
0.00500967 0.0613834 0.0331129 180 75 59 0.324977 0.129175 0.936858 
-0.0774258 -0.0211304 -0.021254 239 212 91 -0.367051 0.260057 0.893109 
-0.026123 0.00136631 0.0473331 129 124 76 0.275881 0.244756 0.929507 
-0.0254106 -0.0535768 0.00512641 43 43 38 0.213492 0.166341 0.96268 
-0.0632031 -0.00519289 -0.0210328 210 179 80 -0.324233 0.588781 0.740412 
0.0336958 0.00123091 -0.021433 64 66 45 0.58815 0.387157 0.710063 
-0.0125891 0.0534978 0.0396988 169 64 55 0.152309 0.0696606 0.985875 
0.0775534 -0.00607869 -0.041271 208 195 85 0.270782 0.436005 0.858241 
0.00947867 0.0846004 -0.0712949 86 86 50 0.621697 0.311656 0.718585 
0.0810248 -0.0216147 -0.0473252 241 223 95 0.815118 0.0348341 0.578246 
-0.0937903 -0.0320021 -0.0297859 139 134 66 -0.234923 0.183911 0.954457 
-0.00459128 0.0433784 0.0387631 182 69 54 0.200562 0.034416 0.979076 
-0.0201859 -0.0157749 0.0489005 61 112 255 0.280007 -0.226538 0.932886 
-0.0209665 0.0548856 0.0398458 186 72 57 -0.272953 -0.00606563 0.962008 
-0.0210181 0.0346455 0.0372858 182 70 57 -0.248645 0.231976 0.940406 
-0.083734 -0.0198846 -0.0217343 237 215 89 -0.0438503 -0.281895 0.958443 
0.0180222 0.0756484 -0.0722458 24 26 27 0.687286 -0.0986042 0.719663 
-0.0127065 0.0326541 0.0394876 173 67 56 -0.066016 0.0465358 0.996733 
-0.0466853 -0.0434693 -0.00351333 170 167 83 0.0811246 0.0313682 0.99621 
-0.0101042 0.00727331 0.0361549 67 119 255 0.664489 -0.0799713 0.743007 
0.045409 -0.0165987 -0.0332982 247 230 111 0.574601 -0.119035 0.809731 
-0.0107277 0.0452761 0.0398146 191 74 57 0.104097 -0.0743552 0.991784 
-0.0596136 -0.0256153 -0.0137678 219 195 88 -0.642955 -0.0181311 0.765689 
0.0536106 -0.0160734 -0.0359679 255 233 112 0.0424149 0.488455 0.871557 
-0.0216653 -0.0122518 0.0494014 66 98 244 0.457949 0.16533 0.873469 
0.0210883 -0.0392967 -0.0125025 164 170 84 0.158353 -0.0954951 0.982754 
-0.0137298 0.0723944 0.0383669 147 55 47 0.0446944 0.140959 0.989006 
-0.0139664 0.0798124 0.0372356 142 55 47 -0.109103 0.282616 0.953008 
-0.0207607 0.0240471 0.0420484 178 70 58 0.250751 0.406907 0.878379 
-0.0758773 -0.0364915 -0.0226354 166 156 71 -0.18945 -0.436175 0.879693 
0.0379294 -0.030082 -0.0281997 204 191 82 0.773325 -0.123198 0.621925 
-0.0510731 -0.0208177 -0.00740331 212 196 91 -0.270782 0.436005 0.858241 
0.030307 -0.0417735 -0.0143942 57 57 35 0.541916 0.18567 0.819667 
-0.0651694 -0.02926 -0.0196211 151 136 71 -0.231965 0.0276435 0.972331 
-0.0108909 -0.0200347 0.0408671 61 113 255 0.368712 -0.134963 0.919694 
0.00394417 -0.000693088 0.0370715 63 113 241 0.307953 0.316879 0.89708 
0.00195457 0.0120723 0.0320225 68 104 212 0.0705574 -0.3661 0.927897 
0.0579633 -0.0416899 -0.0386352 146 141 67 0.0704714 -0.616984 0.783814 
-0.086557 -0.0395617 -0.026737 144 140 67 -0.342243 -0.0507508 0.93824 
0.0731546 -0.00855699 -0.0400635 223 205 87 0.13331 0.229087 0.964234 
-0.00655233 0.0724654 0.0380705 186 70 55 0.269586 -0.0670801 0.960637 
0.0120262 0.00271861 0.0275612 64 42 33 0.62675 -0.22663 0.745535 
0.0817377 -0.0142408 -0.0471467 246 224 91 0.699529 -0.226916 0.67762 
0.0306318 0.0102295 -0.0198418 45 46 38 0.0125195 0.730304 0.683008 
0.0624151 -0.0181719 -0.0339096 240 217 108 -0.153803 -0.0262034 0.987754 
-0.0194407 0.0453389 0.0392275 184 72 54 -0.152576 -0.0332685 0.987732 
0.0393577 -0.0326284 -0.0306978 186 176 79 0.781288 -0.349566 0.5171 
0.0707809 -0.0105593 -0.0401306 207 196 83 -0.145841 0.210373 0.966682 
0.0446333 -0.00782479 -0.0342091 205 195 91 0.653539 0.414075 0.633584 
0.0145732 0.0706574 -0.0688667 32 34 32 0.867461 0.00938521 0.497416 
-0.00996866 0.0794754 0.0375192 200 73 53 0.0489528 0.274889 0.960229 
-0.000706727 0.0179054 0.0351206 176 71 56 0.0583441 -0.432832 0.899585 
-0.0695253 -0.000943392 -0.0295863 215 193 84 0.119927 0.765461 0.632208 
0.0423307 -0.00647589 -0.0280897 194 181 85 0.888082 -0.0364965 0.458234 
-0.000746628 0.0369646 0.0381497 187 71 50 0.105638 -0.0141577 0.994304 
-0.0106915 0.0687797 0.0387367 194 73 56 0.218772 0.0574428 0.974084 
-0.00440843 0.0709484 0.036731 188 72 56 0.667871 -0.0267148 0.743797 
0.064013 -0.0315206 -0.0341029 192 182 83 0.0967205 -0.142096 0.985116 
0.0678218 -0.029651 -0.0339334 83 86 53 0.250482 -0.135077 0.958652 
0.00917027 0.0482183 0.0363475 169 73 51 0.218252 0.0573064 0.974208 
0.0298485 -0.0275543 -0.0163958 152 159 74 0.398444 -0.0715848 0.914395 
-0.0236273 0.00584991 0.0476758 159 80 99 0.387745 -0.458537 0.799624 
-0.00284961 -0.0299332 0.0371757 58 109 255 0.151641 0.0451451 0.987404 
-0.0105067 0.0175807 0.0383861 176 70 57 0.666698 -0.352187 0.65687 
0.0261649 -0.0218974 -0.0129618 129 122 64 0.366089 -0.541812 0.756584 
0.0690841 0.000436614 -0.0435309 86 76 47 0.37839 0.790593 0.48144 
0.00595127 0.0234483 0.0357045 179 74 59 0.203038 -0.272099 0.940605 
-0.00144038 -0.0537609 -0.0190513 73 51 40 0.201177 0.509748 0.836471 
-0.0523617 -0.0509612 -0.0112532 129 125 74 -0.446826 -0.367319 0.815735 
-0.0633953 -0.000489692 -0.0256544 159 135 66 -0.59407 0.556835 0.58053 
0.0110159 -0.00347839 -0.00403669 33 31 26 0.14098 -0.215996 0.966163 
0.0597088 -0.044178 -0.0397904 125 124 62 -0.179077 -0.53422 0.82616 
-0.0625768 -0.0374237 -0.0199469 151 137 72 -0.409167 -0.177836 0.894962 
-0.0335924 -0.0474447 0.00303756 163 163 81 -0.159945 0.236613 0.958349 
0.037452 -0.00204539 -0.0223619 159 150 76 0.426912 0.0414868 0.903341 
0.0156835 0.0209261 -0.0186961 196 180 85 0.0555233 0.168933 0.984062 
-0.00614949 0.0100866 0.0323604 68 109 255 0.685786 -0.052973 0.725873 
-0.00247991 0.0579843 0.0362883 182 71 51 0.391075 0.183271 0.901927 
-0.0466008 -0.0288697 -0.0058803 179 171 88 0.28454 0.00610602 0.958645 
-0.00269487 -0.0444989 0.00455394 64 43 53 -0.113398 -0.60528 0.787894 
-0.00981791 0.00517231 0.035487 68 119 255 0.42196 0.225145 0.878214 
0.0391405 -0.0189181 -0.0236994 217 197 91 0.820443 -0.505966 0.266216 
0.0114591 0.0131371 0.0294379 76 44 33 0.784424 0.151485 0.601441 
0.0278786 -0.0307624 -0.0141873 154 153 74 0.0950954 0.234569 0.967437 
-0.0467337 -0.054165 -0.00986665 87 91 58 -0.105485 -0.0623833 0.992462 
0.0408907 -0.0257246 -0.0336373 217 196 85 0.364086 -0.0114975 0.931294 
-0.00506489 -0.0474382 0.00157885 129 54 49 0.373353 -0.552693 0.745076 
0.0540024 -0.00508919 -0.0355316 202 185 88 0.0130111 0.0110094 0.999855 
0.0142978 -0.0471215 -0.00480769 133 120 59 0.703216 -0.405383 0.584083 
0.0347706 -0.0487083 -0.0280059 47 47 32 0.75972 -0.441392 0.477491 
0.0422511 -0.0430173 -0.0368657 123 118 61 0.519356 -0.546248 0.657178 
0.021033 -0.0328322 -0.0123674 152 143 69 0.609947 -0.0764236 0.788749 
0.00338257 0.00848711 0.0310956 67 115 228 0.177748 0.162403 0.970583 
0.012579 -0.0373388 -0.0010965 36 35 29 0.924511 -0.0933987 0.369534 
0.00910957 -0.0134537 0.0360416 55 99 203 0.547233 0.0489851 0.835545 
0.0102732 0.0341994 -0.0457829 44 44 34 0.831198 0.430583 0.351721 
0.0700668 -0.0112016 -0.0396865 211 190 79 -0.0195502 0.400127 0.916251 
-0.011529 0.0177271 0.0394768 177 71 59 0.439466 -0.129422 0.888887 
-0.00537503 0.00539881 0.034597 65 116 255 0.101206 0.626305 0.772981 
0.0379334 -0.0429619 -0.0330434 120 115 60 0.691595 -0.458286 0.558275 
0.0688615 -0.0260875 -0.0340275 110 95 47 0.10307 -0.124395 0.986865 
0.0634321 -0.0307008 -0.033722 197 187 84 0.101798 -0.0789218 0.99167 
0.0617035 -0.0254458 -0.0340795 222 203 88 0.00328132 0.125784 0.992052 
0.0101104 -0.0233458 0.03301 65 66 90 0.904052 -0.101376 0.415225 
-0.00621327 -0.0254784 0.0379212 58 108 255 0.0829491 -0.20923 0.974342 
-0.0199379 -0.0105253 0.0479127 61 114 255 0.418819 0.198388 0.886133 
-0.0222596 0.0321007 0.0384847 176 70 56 -0.169772 0.340947 0.924626 
0.0636441 -0.00564129 -0.0422238 172 161 79 -0.146542 0.699473 0.699473 
0.0512211 -0.0341784 -0.0357535 193 181 79 -0.111289 0.0483378 0.992612 
0.040632 -0.0209985 -0.0297895 208 192 88 0.769576 -0.401872 0.496238 
-0.0247741 -0.00608409 0.047766 151 79 72 0.121092 0.253902 0.95962 
-0.0257767 0.00824911 0.0508405 167 172 87 0.0950956 -0.653965 0.750524 
-0.0249426 0.0198643 0.0450331 116 85 62 0.362681 0.557846 0.746505 
0.0645976 -0.0256898 -0.0338742 197 187 86 0.0160206 0.0822393 0.996484 
0.0574157 -0.0170208 -0.0342978 247 220 113 -0.133032 -0.0636242 0.989067 
0.0209315 0.00411081 -0.016256 127 136 73 0.372246 0.375361 0.848845 
-0.0794788 -0.00291699 -0.0292751 224 207 88 0.0522898 0.592146 0.804132 
0.0680645 -0.0425872 -0.0383781 52 57 36 0.174907 -0.159587 0.971565 
0.0114711 0.0392188 0.0357418 65 41 30 0.172022 0.0242447 0.984795 
0.037864 -0.0253016 -0.0234916 212 196 84 0.990491 -0.0797478 0.112109 
0.00392557 -0.00201529 0.0375226 63 112 244 0.395143 0.249014 0.884225 
0.0398247 -0.0282676 -0.0304145 206 191 83 0.895058 0.190655 0.40314 
-0.00615604 -0.0495514 0.000756449 144 61 48 0.330507 -0.440154 0.834883 
0.00560387 0.0525737 0.0362988 183 80 63 0.129354 0.246949 0.960356 
-0.0936133 -0.0152313 -0.0278861 193 180 85 -0.442159 -0.0730045 0.893961 
-0.0577579 -0.00951809 -0.0152481 208 191 88 -0.274083 0.145732 0.9506 
-0.0592733 -0.0135793 -0.0142982 239 216 93 -0.5782 0.323728 0.748922 
0.00850317 -0.0214929 0.0367637 62 109 254 0.492803 -0.0889587 0.865582 
0.0130086 0.0760234 -0.0682561 57 58 44 0.809458 0.421559 0.408736 
0.0141951 -0.038003 -0.00609333 97 96 50 0.906309 -0.0039009 0.422597 
-0.020012 0.0695655 0.0380756 186 75 59 -0.120422 0.244729 0.962084 
-0.0372403 -0.0478867 0.00239309 180 165 80 -0.553169 0.436887 0.709319 
0.0491102 -0.00911899 -0.0365894 226 204 90 0.305472 0.0657346 0.949929 
-0.0940144 -0.0116087 -0.0280795 193 184 89 -0.562254 -0.112451 0.819284 
-0.0795207 -0.0174619 -0.0224391 244 220 92 0.0166255 -0.125245 0.991986 
0.0598561 -0.0150041 -0.0337703 239 210 102 0.00328132 0.125784 0.992052 
-0.00609013 0.00611121 0.034123 64 116 255 0.215125 0.58966 0.778475 
0.0273914 -0.0220751 -0.0137443 161 156 74 0.237225 -0.544221 0.804703 
0.0528651 -0.015314 -0.0365103 253 228 106 0.13401 0.471198 0.871788 
-0.0810895 -0.0108979 -0.022846 252 222 92 0.313897 0.384332 0.868192 
0.0107377 -0.0298687 0.0297718 120 58 56 0.56928 -0.626715 0.532117 
0.0305903 -0.023171 -0.0147928 173 174 81 0.318562 -0.146292 0.936545 
-0.0029663 -0.0203127 0.0382927 59 112 255 -0.0942215 -0.105854 0.989908 
-0.0128938 -0.0492391 0.00408789 140 60 48 0.0784405 -0.094356 0.992443 
0.0225546 0.00961801 -0.0177156 199 194 94 0.436614 -0.120104 0.891596 
-0.00166886 -0.0252609 0.0374323 60 112 255 0.0404255 -0.243778 0.968988 
-0.0170034 0.0619303 0.0397877 186 71 54 0.0760087 0.0941601 0.992651 
0.0367098 -0.0430713 -0.028135 102 102 58 0.769261 -0.291459 0.568585 
0.0161725 -0.0358124 -0.0108161 132 140 79 0.850074 0.0176815 0.526366 
0.0146856 0.0490038 -0.0621159 85 86 52 0.834926 0.102383 0.540755 
-0.00486855 0.0852054 0.0321404 192 73 58 0.384942 0.645976 0.659193 
0.082436 -0.00502729 -0.053188 194 185 83 0.959758 0.199894 0.197247 
0.0752575 -0.0365463 -0.0377119 143 141 66 0.0720951 -0.326394 0.94248 
-0.0118153 0.010282 0.0386338 67 112 255 0.625851 0.0766053 0.776171 
0.00148657 -0.0310945 0.0363412 58 107 253 0.0544074 0.282159 0.957824 
0.0450487 -0.0261532 -0.0342508 210 180 82 0.111631 0.104581 0.988231 
0.0326253 -0.0161963 -0.0149769 98 111 62 0.785788 -0.227832 0.575005 
0.0109084 -0.0444319 0.00377883 25 26 23 0.649443 -0.585674 0.484985 
-0.0510087 -0.0390703 -0.00570703 140 132 72 -0.18921 0.232151 0.954099 
0.0180421 -0.0279434 -0.00888563 130 129 68 0.515913 -0.126435 0.847259 
0.0119722 -0.0406294 0.000714148 24 26 24 0.957737 -0.0160239 0.287198 
0.00046847 0.0938704 0.0209941 120 68 48 -0.586836 -0.177416 0.79003 
0.0167184 0.0704994 -0.0725813 26 26 26 0.935445 -0.0754177 0.345334 
0.0149987 0.0372152 -0.0553978 73 72 45 0.767485 0.450018 0.456564 
0.00783598 0.0273768 0.0364339 182 74 58 0.144773 -0.196021 0.969854 
-0.0499387 -0.0503525 -0.0102568 151 150 83 -0.154716 -0.132437 0.979042 
-0.0728084 -0.0172355 -0.0211234 244 220 94 -0.233652 0.105973 0.966528 
0.0200171 0.000152112 -0.0122113 178 177 88 0.0238361 0.688443 0.724899 
0.00597647 0.0668592 -0.0531456 52 47 30 0.720124 0.175826 0.671198 
0.0401343 -0.0344041 -0.0332891 186 173 77 0.397265 -0.47834 0.78318 
-0.0872165 -0.00435399 -0.0288421 189 180 82 0.363815 0.512575 0.777756 
-0.0234327 0.0216289 0.0427505 170 69 54 -0.659519 0.449141 0.60275 
0.0745917 -0.00300019 -0.0434692 183 175 80 0.61779 0.61779 0.486489 
0.00974327 -0.012862 0.0356634 52 83 134 0.690759 0.0923945 0.717158 
-0.0823846 -0.0376145 -0.0252214 153 151 70 -0.540067 -0.0662746 0.839008 
0.0397166 -0.0255086 -0.0323615 213 195 86 0.727076 -0.17909 0.662787 
-0.077749 -0.0119308 -0.0230119 252 224 94 0.0862756 0.403989 0.910686 
-0.00592368 -0.0276064 0.0372548 59 110 255 0.134455 -0.275566 0.951833 
0.0603086 -0.0172646 -0.0340926 253 224 124 -0.00782411 -0.146423 0.989191 
0.0121395 0.0129296 0.0266994 36 29 26 0.951908 0.151288 0.266427 
-0.0190414 -0.0219804 0.0481173 63 112 255 0.363557 -0.0192698 0.931373 
-0.0767879 -0.037178 -0.0231043 160 152 71 -0.144621 -0.428135 0.892068 
0.0238386 -0.0433264 -0.0143192 197 192 116 0.127624 -0.0609376 0.989949 
-0.00705384 0.0436046 0.0393634 178 66 53 0.162647 -0.0700452 0.984195 
0.0130422 0.0268216 -0.0204626 49 48 37 0.795696 0.552783 0.247585 
0.0721239 -0.0431131 -0.0399328 76 77 44 0.247003 -0.532843 0.809362 
0.0263961 0.0119984 -0.0206486 122 127 71 0.626797 0.489002 0.606632 
-0.0184578 0.0412264 0.0394824 184 70 55 -0.174327 -0.0557372 0.983109 
-0.0625758 -0.00316829 -0.0219598 188 160 78 -0.523336 0.489896 0.697224 
0.0806844 -0.0178509 -0.0470514 255 250 121 0.83086 -0.0178532 0.556195 
-0.0644546 -0.00923169 -0.0191849 185 163 79 -0.586462 0.197529 0.785522 
0.00979437 -0.00360809 0.0320815 94 59 66 0.923371 -0.0246752 0.383115 
-0.021575 0.0260758 0.0407431 175 69 55 0.0143458 0.41081 0.911608 
-0.0223284 0.0442296 0.0386978 181 72 54 -0.462574 -0.094202 0.881562 
-0.0217794 0.0811714 0.0347073 178 86 64 -0.224189 0.498706 0.837277 
0.0702034 -0.0182028 -0.0347574 217 189 84 0.316077 0.325065 0.891307 
-0.0225208 0.0536694 0.0394114 176 77 59 -0.206497 0.0543414 0.976937 
-0.00818059 0.0537822 0.03882 187 71 57 0.236167 0.139613 0.961631 
0.000905374 0.0100783 0.0312526 66 108 232 0.187531 0.0561397 0.980653 
0.0182391 0.0620991 -0.0720932 25 25 28 0.775133 0.308455 0.551383 
0.0142693 0.0527647 -0.0623167 94 91 52 0.657701 0.323167 0.680436 
-0.0186358 0.0351575 0.0385872 182 70 53 -0.401063 -0.0222087 0.915781 
-0.0705768 -0.0361287 -0.0214187 169 162 74 -0.205272 -0.171278 0.963601 
0.00777477 -0.0278683 0.0334574 59 109 255 0.623251 -0.579337 0.525288 
0.0308339 -0.0357277 -0.0181573 53 54 32 0.699023 -0.101542 0.707853 
0.00657497 0.00617901 0.0314158 65 109 195 0.128919 0.429258 0.893934 
0.0545397 -0.0314522 -0.0347413 199 188 82 -0.371126 -0.144249 0.91731 
0.00338587 0.0480523 0.0371382 179 75 59 0.217696 0.118396 0.968809 
0.0300076 -0.0186559 -0.0128531 176 175 82 0.741819 -0.324849 0.586667 
0.0250935 -0.000442388 -0.0144563 128 123 71 0.364003 0.249055 0.897482 
-0.0809202 -0.0187335 -0.022036 240 218 93 0.117704 -0.174697 0.977562 
-0.0107471 0.0842824 0.0353041 192 74 56 -0.285509 0.259684 0.922523 
-0.0527556 -0.012495 -0.0113255 214 199 88 -0.0717513 0.144679 0.986874 
-0.00185388 0.0586027 0.0359119 180 72 53 0.392971 0.208903 0.895507 
-0.00743258 0.00622431 0.0340278 65 117 255 0.497166 0.358796 0.789995 
0.0207455 -0.0241018 -0.0110477 176 176 89 0.543278 -0.417779 0.728224 
0.00826477 -0.00314069 0.0366896 63 108 223 0.366299 -0.0114867 0.930426 
