ply
format ascii 1.0
comment VCGLIB generated
element vertex 677
property float x
property float y
property float z
property float nx
property float ny
property float nz
property uchar red
property uchar green
property uchar blue
element face 0
property list uchar int vertex_indices
end_header
0.00126187 0.0852753 -0.0152661 0.190047 -0.0400237 0.980959 134 125 64
0.0369946 0.0442951 -0.011228 0.407224 -0.0445616 0.912241 75 73 45
-0.00389602 -0.0248663 0.00293994 0.196543 0.0281253 0.980092 133 127 64
0.0276836 0.0866965 -0.0356761 0.882105 0.0767414 0.46476 76 72 44
-0.0227532 0.0252412 0.00873494 -0.185714 0.481698 0.856433 125 56 45
0.0114795 0.0341317 -0.00458008 0.0512676 -0.856073 0.514306 98 96 52
-0.0197812 0.00363227 0.0431029 0.102325 -0.383653 0.917791 61 64 141
-0.0255882 0.0799189 -0.022423 -0.438838 0.438838 0.784119 106 107 56
-0.00896562 -0.046769 0.00488097 -0.0351643 -0.0303175 0.998922 110 111 64
-0.0338743 -0.0945439 -0.0303971 -0.240221 -0.488834 0.838651 61 58 36
-0.0305274 0.0973567 -0.026912 -0.293676 -0.165064 0.941546 81 83 51
0.00743894 0.0875733 -0.0159421 0.234983 -0.088144 0.967995 115 107 57
-0.0414968 -0.0516127 -0.00755906 -0.671858 -0.434682 0.599715 105 100 57
0.020496 0.00332574 0.0544279 -0.250545 -0.911786 0.325383 127 55 45
0.0330882 0.00577185 0.0474959 -0.171724 0.0227826 0.984882 125 53 43
0.0246784 0.0966754 -0.0286511 0.880506 -0.237914 0.410008 66 66 42
0.0489481 0.0303143 -0.0272601 0.191623 0.169363 0.966745 30 32 27
-0.023835 0.00780041 0.0439849 -0.0962059 -0.262889 0.960018 128 55 48
-0.0216359 0.091531 -0.022423 -0.521709 -0.079796 0.849384 118 116 63
-0.00112427 -0.0197252 0.00326395 -0.0637864 -0.1942 0.978886 44 39 30
0.0122994 -0.062332 -0.0156041 0.096045 -0.688221 0.719115 36 36 25
-0.0375925 -0.0672241 -0.028303 -0.766951 -0.179268 0.616157 104 96 53
-0.00244512 -0.0453634 0.00455797 0.0747558 0.0216002 0.996968 138 133 64
0.0462547 -0.032695 -0.0237991 0.642416 -0.43222 0.632841 32 32 25
-0.0593985 -0.0278899 -0.0403021 -0.67384 0.225087 0.703759 92 92 57
0.0741998 -0.00926792 0.0567119 0.59477 0.195799 0.779687 102 42 35
-0.0183236 -0.0210414 0.00229192 -0.092313 -0.296106 0.950684 104 98 55
-0.0115526 0.0693371 -0.00227707 -0.0577954 0.803192 0.59291 116 115 62
-0.0200431 -0.0563683 -0.00129407 -0.172518 -0.658861 0.732215 102 104 59
0.0589059 -0.0169539 0.0547139 0.163242 0.0466125 0.985484 68 37 32
-0.0338096 -0.0867813 -0.0279551 -0.225034 -0.140085 0.964228 114 109 59
-0.000832624 -0.0945998 -0.0213931 0.197159 -0.406133 0.892292 66 62 35
0.0146283 -0.0770798 -0.0248351 0.836734 -0.10636 0.537182 75 75 44
0.0320386 -0.0795329 -0.0515281 0.428764 -0.0395736 0.902549 39 40 31
-0.0433646 -0.012803 -0.0162811 -0.407237 0.0523495 0.911821 66 58 36
-0.0147329 -0.0813378 -0.0176391 -0.121567 -0.0750939 0.989739 110 111 60
-0.0496799 0.0583417 -0.0162811 -0.588291 -0.021639 0.80836 101 95 54
-0.0140462 -0.0181514 0.00358796 -0.184703 -0.451627 0.872879 60 50 29
0.0172814 -0.0929853 -0.029349 0.496708 -0.335358 0.80051 45 48 33
-0.0308788 0.0117058 0.0460369 0.116538 -0.233004 0.965468 130 54 45
-0.0162077 0.0273401 0.00423497 0.148058 0.16355 0.975362 110 49 41
0.0338813 0.101887 -0.0456991 0.329189 -0.445856 0.832374 55 52 51
0.0484911 -0.0386684 -0.0332051 0.47621 -0.240492 0.845806 55 50 36
0.0197454 0.0636309 -0.00392103 0.0716364 0.46995 0.879782 97 94 54
-6.3834e-05 0.0480861 0.00584793 0.181191 0.0285339 0.983034 129 122 64
0.0212526 -0.056238 -0.00590205 0.443274 -0.147757 0.884124 79 82 47
-0.0518724 0.0185964 0.0442789 -0.0921351 -0.113642 0.98924 131 58 50
0.00907084 -0.00587881 0.0454519 -0.0705927 -0.470267 0.879696 120 51 42
-0.0406905 -0.043654 -0.00524008 -0.262947 -0.0665164 0.962515 116 114 62
0.0476089 -0.0217951 0.0524179 -0.219798 -0.52961 0.819269 32 32 36
-0.00280971 -0.040253 0.00423497 0.100237 0.0915466 0.990743 129 128 66
0.0635317 0.00681573 0.0489499 -0.106118 0.337164 0.935446 46 38 42
0.0199978 0.096533 -0.0220791 0.586714 0.122546 0.800468 76 78 48
0.0282563 0.0305896 -0.0118981 0.261388 -0.479701 0.837594 38 39 30
-0.0142264 -0.0555678 1.29369e-05 -0.0519659 -0.597488 0.800192 107 109 61
0.061879 -0.000664556 0.0529939 -0.0731171 0.32914 0.941446 127 54 44
0.0178993 -0.04899 -0.00194907 0.474191 -0.179549 0.861919 115 106 55
-0.0219807 0.0450135 0.00229192 -0.461229 0.0401585 0.886372 93 98 54
0.0363471 -0.0563484 -0.0139161 0.723672 -0.435958 0.535014 62 61 39
-0.0314578 -0.0493609 -0.000967019 -0.375415 -0.116874 0.919459 132 129 63
-0.0020934 -0.0713647 -0.0162811 1.99918e-14 -3.76548e-13 1.0 96 93 49
0.0507659 0.00721124 0.0454519 0.0200822 0.855215 0.517883 102 46 41
0.0346374 0.10242 -0.0456991 0.279301 -0.388738 0.877994 59 53 57
-0.0015324 -0.0830175 -0.0166201 0.028446 -0.0965291 0.994924 87 87 49
-0.0476779 0.0584461 -0.0152661 -0.575877 -0.0255911 0.817135 101 95 54
-0.0383128 0.0355601 -0.00326306 -0.578519 0.421809 0.698135 87 80 51
-0.0309953 -0.0783497 -0.022423 -0.453902 0.00763014 0.891019 114 110 58
-0.00908264 0.0359728 0.00164193 0.505218 -0.583402 0.635922 173 169 114
0.0114398 -0.0577592 -0.00524008 0.260352 -0.88032 0.396552 85 88 51
0.0210106 0.0985521 -0.0231111 0.662705 -0.0185397 0.748651 75 74 48
-0.0338922 -0.083521 -0.0276071 -0.421231 -0.14861 0.894695 111 107 57
-0.00471719 0.061058 0.00455797 -0.125489 0.124817 0.984212 120 120 65
-0.0257018 0.0677898 -0.00129407 -0.223826 0.552216 0.803093 139 133 68
0.0256839 0.0613357 -0.00392103 0.599547 -0.000446944 0.800339 87 84 47
0.0144434 -0.024653 0.000664952 0.38076 -0.108358 0.918303 92 85 49
0.013793 0.0326924 -0.00590205 0.0697799 -0.584635 0.80829 76 76 46
0.0173968 0.0965644 -0.0203661 0.596309 0.109946 0.795191 96 91 54
0.00266345 -0.0341738 0.00293994 0.0985922 0.0621333 0.993186 115 113 60
0.0218262 0.0993998 -0.0244891 0.681685 -0.0274018 0.731133 73 71 47
0.0265747 -0.0742134 -0.0325011 0.487354 0.0194366 0.872988 56 54 35
0.0237223 -0.00694773 0.0477869 0.0259012 -0.454044 0.890603 124 52 41
-0.0172624 -0.0439745 0.00358796 -0.145368 0.0878191 0.985472 137 133 74
-0.0328002 -0.0352368 -0.000967019 -0.307485 0.031961 0.951016 140 128 64
0.0163397 0.10544 -0.0190001 0.187625 -0.285339 0.939882 78 67 65
-0.019788 0.0870186 -0.0210511 -0.765092 0.0910076 0.637458 124 119 61
0.0427917 -0.0428023 -0.0272601 0.685585 -0.408384 0.602657 64 61 39
-0.025836 0.0900611 -0.0241441 -0.507649 -0.172976 0.844021 116 112 60
-0.0374309 -0.0361634 -0.00293404 -0.600059 -0.0621869 0.797535 110 105 59
0.0778086 -0.00760979 0.0532809 0.410614 -0.326923 0.851186 70 35 31
0.0154586 0.08174 -0.0190001 0.598021 0.306186 0.740689 116 109 57
-0.0395237 0.0437732 -0.00557107 -0.452554 0.0783154 0.888291 97 86 54
0.00169798 0.0401058 0.00326395 0.0897668 -0.741717 0.664679 132 128 62
-0.0230383 0.0389061 0.00229192 -0.381441 -0.0420545 0.923436 103 107 63
0.0190043 -0.0277916 -0.000967019 0.310011 0.0408901 0.949853 97 93 50
-0.00763942 -0.021075 0.00293994 -0.0901208 -0.132902 0.987023 94 84 51
-0.0382077 0.0320545 -0.00129407 -0.342709 0.326432 0.880905 96 71 46
-0.00785071 0.0807006 -0.0135791 0.0758101 -0.24447 0.966689 134 126 67
0.0106466 -0.0843059 -0.0213931 0.509344 -0.204581 0.835892 81 78 42
-0.00552951 -0.00394752 0.0454519 -0.373109 -0.737637 0.562745 119 53 51
0.0153742 0.00401252 0.051842 -0.531027 -0.614238 0.583715 127 54 45
-0.0468968 -0.0267346 -0.0118981 -0.547166 0.290492 0.784999 119 115 62
-0.0509801 0.0696286 -0.0169591 -0.586362 0.0505589 0.80847 111 106 72
0.0669941 -0.00633772 0.0572809 -0.191364 0.163297 0.96784 122 55 47
-0.00518496 -0.0855884 -0.0169591 -0.0376888 -0.218503 0.975108 106 105 55
0.00968824 -0.0227476 0.00229192 0.149755 -0.151454 0.977054 66 63 41
0.0158428 0.0665594 -0.00557107 0.104452 0.581835 0.806572 105 100 54
-0.0058157 -0.0466873 0.00488097 0.0297768 -0.0341732 0.998972 135 128 70
-0.0562801 0.0177424 0.0431029 0.148289 -0.0684023 0.986576 127 54 45
-0.0178665 -0.0292983 0.00229192 -0.283587 0.0782598 0.955748 143 138 67
0.0160504 0.0464111 1.29369e-05 0.566473 -0.00193611 0.824078 111 108 56
-0.0330724 0.0162193 0.0463289 -0.273819 -0.282329 0.919409 120 54 46
-0.012635 -0.0353838 0.00391197 -0.0288503 0.041389 0.998726 136 130 68
-0.0537472 0.0210847 0.0457449 0.537369 -0.17107 0.825814 126 55 45
-0.000885754 0.0433363 0.00520295 0.0208644 -0.399967 0.916292 137 131 64
-0.041325 0.0558251 -0.00722706 -0.578241 0.386207 0.718667 108 103 56
0.00103962 -0.0545663 0.00196695 -0.0714322 -0.690547 0.719751 126 127 66
0.0343172 0.0918828 -0.0515281 0.85155 -0.0625307 0.520531 47 45 41
0.0178193 0.102646 -0.021736 0.291324 -0.141342 0.946125 91 89 54
0.0253937 0.0484 -0.00557107 0.347813 -0.110492 0.93103 89 89 52
0.0431953 -0.00271272 0.0527059 -0.0161621 0.215944 0.976272 122 48 40
-0.0111325 0.0840606 -0.01459 -0.110152 -0.0738403 0.991168 135 123 65
-0.0156413 0.0174924 0.038066 -0.06504 -0.30005 0.951704 113 55 55
-0.0545705 0.0477016 -0.0241441 -0.865039 0.0433346 0.49983 106 93 53
-0.00151986 0.0125003 0.0503989 -0.410751 -0.861232 0.299271 122 55 49
0.0504705 0.00144525 0.0521309 -0.127314 0.502162 0.85535 125 53 46
0.0577286 -0.0167885 0.0549999 0.18336 0.119556 0.975749 73 37 31
-0.0525978 0.0616193 -0.020708 -0.911571 -0.151057 0.382386 102 96 55
0.0321118 0.0610542 -0.00789106 0.659268 0.208419 0.722445 80 77 50
0.0464438 -0.031467 -0.0234551 0.626627 -0.264449 0.733079 28 29 24
-0.0210176 -0.0955597 -0.0251801 -0.349103 -0.503618 0.79025 95 87 42
-0.00224285 -0.0226033 0.00261593 -0.102444 -0.173768 0.979444 111 100 54
-0.0246333 0.0816955 -0.022423 -0.402854 0.336428 0.85119 115 113 59
0.0313909 -0.0754278 -0.0511611 0.396562 -0.0694108 0.91538 42 42 31
0.0133539 -0.00889285 0.0445729 -0.0296256 -0.324731 0.945342 116 51 42
-0.0321725 0.102513 -0.0255261 -0.403632 -0.302639 0.863418 91 88 53
0.0362751 -0.00857898 0.0524179 -0.234131 0.0406342 0.971356 121 51 42
0.0196286 0.090693 -0.021736 0.557713 -0.0973768 0.824302 85 83 52
0.00543316 -0.0726176 -0.0172991 0.152874 -0.0262386 0.987897 95 95 51
0.0318004 0.0445586 -0.00789106 0.546661 -0.0628941 0.834989 95 90 53
0.0522517 -0.0527655 -0.0370941 0.2354 -0.170345 0.956854 21 24 24
-0.0373786 0.0372975 -0.00326306 -0.69336 0.208272 0.689837 95 89 54
0.0541758 -0.0071506 0.0538549 -0.169418 0.194812 0.966098 125 51 43
0.030896 -0.0700608 -0.0381611 0.562927 -0.748444 0.350634 30 31 26
-0.0117434 0.0878593 -0.0139161 -0.0554134 -0.0696931 0.996028 135 125 65
-0.0355262 -0.024973 -0.00425005 -0.575479 0.438842 0.690103 137 124 63
-0.0225921 0.0303828 0.00391197 -0.0639474 0.251659 0.965701 78 60 41
0.0457845 0.0347043 -0.026912 0.491394 0.0967905 0.865542 56 55 38
-0.0384137 -0.0108632 -0.0125701 -0.539609 -0.392788 0.744674 37 32 23
0.0348384 -0.0574182 -0.0132421 0.54616 -0.618976 0.564427 57 57 36
0.0195276 0.040616 -0.00260603 0.458511 -0.402675 0.792225 115 109 56
0.034489 0.0371226 -0.0115631 0.399812 -0.435609 0.806471 80 79 48
0.0115834 -0.0628292 -0.0159421 0.0397873 -0.607472 0.793344 38 36 25
0.0139905 -0.0886048 -0.0262191 0.640983 -0.231351 0.731859 66 66 36
-0.00474525 0.0144308 0.0492399 -0.723791 -0.440972 0.530726 109 57 64
0.0105632 0.0833328 -0.0166201 0.195256 0.0499704 0.979478 125 115 59
0.0343614 0.0311689 -0.0176391 0.681545 -0.163956 0.713173 39 40 29
-0.0298978 0.000871657 0.0410369 -0.426611 -0.706845 0.564246 127 54 45
0.00732894 0.0243511 -0.0102241 -0.0853184 -0.664095 0.742764 124 54 46
0.0237335 -0.0907287 -0.0328531 0.330911 -0.125371 0.935297 50 50 34
0.0188588 -0.0796376 -0.0276071 0.225461 0.158851 0.961215 64 60 38
0.00773754 0.0306784 -0.00656408 -0.11216 -0.224839 0.967919 39 36 27
0.021567 0.0699549 -0.00822407 0.193263 0.845293 0.498125 93 90 48
-0.0182933 -0.0317709 0.00261593 -0.22025 0.126981 0.967143 146 140 69
0.0182763 0.0481706 -0.00129407 0.339179 -0.0516685 0.939302 108 104 55
0.0409819 -0.0452127 -0.0258721 0.893692 -0.156573 0.420476 72 69 41
0.069913 -0.0163416 0.0578499 -0.265413 0.0809178 0.960733 99 45 37
0.0252553 0.0957179 -0.0332051 0.941492 0.0379074 0.334897 66 66 43
-0.0615317 0.0582911 -0.029349 -0.324511 -0.114293 0.938951 83 80 55
-0.0421167 -0.0130192 -0.0162811 -0.311372 0.03154 0.949765 66 59 36
-0.00142794 -0.0862279 -0.0172991 0.0722913 -0.195797 0.977976 95 87 45
-0.00909202 -0.0591756 -0.00689506 -0.0627239 -0.93579 0.346933 64 66 40
9.81591e-06 -0.0973174 -0.0220791 0.137767 -0.168096 0.976096 105 100 46
-0.0553264 0.06889 -0.022423 -0.738179 -0.391759 0.549196 102 100 66
0.0248071 -0.0504766 -0.00623303 0.268685 -0.151363 0.951261 102 94 50
-0.0111009 0.00190394 0.0404439 -0.831431 -0.240552 0.500856 43 70 183
0.00826274 0.0416628 0.00229192 0.175623 -0.63829 0.749495 125 119 61
-0.0201755 0.0408686 0.00261593 -0.0661856 -0.0629341 0.995821 148 141 72
-0.0414593 -0.054616 -0.0105581 -0.630193 -0.634785 0.447107 104 94 55
-0.0475995 0.0658685 -0.0139161 -0.730751 -0.0254905 0.682168 115 109 58
0.0395656 -0.027736 -0.0169591 0.572177 -0.231461 0.786791 38 36 26
0.0553767 -0.0164579 0.055572 0.0695662 -0.182473 0.980747 80 39 35
0.0229509 0.0603358 -0.00293404 0.0976447 -0.0385234 0.994475 80 80 46
0.0413348 0.0400427 -0.0234551 0.403207 -0.107915 0.908723 69 70 45
0.0300704 -0.0424043 -0.00722706 0.549921 -0.0307407 0.834651 83 77 46
0.0109871 0.0466034 0.00358796 0.371695 -0.224364 0.900835 124 120 62
-0.0179677 -0.0628313 -0.0162811 -0.179206 -0.556093 0.81157 57 51 30
-0.0166459 0.0538393 0.00391197 -0.218483 -0.0329387 0.975285 119 119 65
0.0380233 -0.00532761 0.0524179 -0.497559 -0.0430929 0.866359 118 49 39
0.0470441 -0.0141924 0.0538549 0.117257 -0.0136893 0.993007 100 45 36
-0.0663997 -0.0258931 -0.0417351 0.36621 0.334896 0.868179 119 119 101
-0.0351326 -0.0302927 -0.00227707 -0.577646 0.0355393 0.815514 120 110 59
-0.0013594 -0.00403236 0.0451589 0.181581 -0.698422 0.692268 123 54 48
-0.00337115 0.103105 -0.0166201 -0.0279213 0.31139 0.949872 116 112 66
-0.00708613 0.0401374 0.00455797 0.0659875 -0.426941 0.901869 128 124 69
0.0409248 -0.03651 -0.021736 0.623899 -0.0997411 0.775114 69 65 40
0.000702026 -0.052715 0.00326395 0.000946938 -0.310933 0.950431 131 131 65
-0.0353235 -0.0153466 -0.0115631 -0.542346 0.0867797 0.835662 73 64 39
-0.0335492 -0.0166503 -0.00822407 -0.733803 0.536563 0.416694 75 66 37
-0.0256131 -0.0303202 0.000664952 -0.322233 0.00277416 0.946656 142 132 66
0.00677984 -0.0760523 -0.0176391 0.242257 -0.0415583 0.969322 99 95 52
-0.0358217 -0.0870668 -0.0286511 -0.512885 -0.0568446 0.856573 115 110 59
0.0152807 -0.0689098 -0.0220791 0.563136 -0.326424 0.759161 80 77 42
-0.00855529 -0.033579 0.00391197 0.0319399 0.0852053 0.995851 112 112 65
-0.0387879 -0.0509418 -0.00557107 -0.355693 -0.325164 0.876214 101 94 54
-0.0588213 -0.051057 -0.0410181 -0.15831 -0.837508 0.522989 97 93 56
-0.0163142 0.0412825 0.00358796 -0.141457 -0.0847426 0.986311 147 142 74
-0.054248 0.0455824 -0.0234551 -0.814707 0.209581 0.540673 100 93 57
-0.0248475 -0.0653899 -0.0183191 -0.312283 -0.286937 0.905619 110 101 51
0.00869344 -0.0725046 -0.0179781 0.382729 -0.0787701 0.920497 91 87 48
0.0200222 0.0747715 -0.0172991 0.382676 0.626516 0.678998 102 95 52
0.000303696 0.0834391 -0.0149281 0.218406 -0.00702064 0.975833 135 130 65
0.00465137 -0.0808467 -0.0172991 0.159555 -0.109124 0.981139 99 95 51
-0.0286411 0.0396444 1.29369e-05 -0.286648 0.197704 0.937415 101 105 60
0.0114359 0.0599842 0.00229192 0.548822 0.34851 0.759826 127 121 61
0.074523 -0.0201194 0.0581329 0.134081 0.0472039 0.989846 41 28 26
-0.0295545 -0.0663541 -0.0213931 -0.383823 -0.176732 0.906336 129 116 56
0.0332329 0.0975598 -0.0493331 0.541836 -0.359631 0.759657 48 47 40
-0.00160108 -0.0645174 -0.0139161 0.290802 -0.628564 0.721347 71 63 37
0.0266745 -0.0285994 -0.00590205 0.593824 -0.124476 0.794908 92 83 44
-0.0148519 -0.093457 -0.021736 -0.226773 -0.320086 0.919847 70 73 42
-0.029566 0.0988967 -0.0258721 -0.266255 -0.227535 0.936662 96 96 57
-0.0112289 0.0871293 -0.0139161 0.0772687 -0.0892475 0.993008 135 124 68
-0.0283135 -0.0852663 -0.0231111 -0.553439 -0.37385 0.744273 115 115 61
0.0275581 0.00249494 0.051842 0.378044 -0.545125 0.748279 128 53 42
-0.040713 -0.0541899 -0.00922304 -0.590157 -0.650809 0.477664 104 97 55
0.0407569 -0.0165754 0.0532809 -0.087218 -0.0182104 0.996023 49 30 26
0.00826854 0.084938 -0.0162811 0.197885 -0.017181 0.980075 119 113 59
0.0260493 -0.0734678 -0.0325011 0.499318 -0.0259302 0.866031 58 55 36
0.0318457 -0.0206426 -0.00557107 0.276372 -0.308522 0.910183 27 25 22
0.0369747 0.0225429 -0.0227671 0.423005 -0.135363 0.89596 88 46 35
-0.0308814 0.0414665 -0.000967019 -0.348676 0.153267 0.924627 123 118 62
0.0171486 0.0876484 -0.020708 0.612577 -0.0919371 0.785046 96 92 53
0.018743 -0.0841609 -0.0279551 0.272597 -0.221923 0.936184 62 60 38
0.0328104 -0.0458288 -0.00989008 0.620582 -0.0434714 0.782935 88 81 49
0.00579401 -0.0899297 -0.0213931 0.307101 -0.295405 0.904669 91 86 44
0.0387241 -0.0645353 -0.0325011 0.0840548 -0.891294 0.445567 22 24 22
-0.0125285 0.0795889 -0.0135791 -0.0307913 0.380434 0.924295 143 130 67
0.0021898 -0.072716 -0.0169591 0.130112 -0.02205 0.991254 103 99 54
-0.00359721 0.101774 -0.0162811 -0.0317595 0.255419 0.966309 125 118 65
-0.0454903 -0.0175067 -0.0169591 -0.573741 0.546115 0.610394 77 70 41
-0.0430123 0.0620509 -0.0115631 -0.478553 -0.00649731 0.878035 106 102 58
-0.0133503 -0.0770715 -0.0176391 -0.153421 0.0267727 0.987798 111 112 61
-0.0286069 0.100514 -0.0251801 -0.399388 -0.475056 0.784099 105 104 59
0.00376821 -0.0205365 0.00293994 0.130374 -0.262152 0.956179 53 47 33
-0.00482126 0.0459591 0.00488097 -0.0427639 -0.116854 0.992228 128 124 70
0.00547105 -0.0289368 0.00229192 0.099228 0.170632 0.980326 110 113 60
0.0646415 -0.00693833 0.056142 -0.475883 0.184503 0.859938 126 54 46
-0.0461615 -0.0262538 -0.0115631 -0.509744 0.255838 0.821406 124 118 63
0.0051949 -0.0484921 0.00358796 0.0845866 -0.0599224 0.994613 114 116 59
-0.0101886 0.00021455 0.0428079 -0.8368 0.171978 0.519797 45 68 173
-0.0657377 -0.0492419 -0.0403021 -0.127113 -0.193015 0.972927 107 105 86
-0.0266181 0.0366035 0.00099093 -0.248411 0.102275 0.96324 61 65 49
0.0630999 -0.00902983 0.056142 -0.137316 0.245148 0.959712 127 53 45
0.0128075 0.0851078 -0.0176391 0.344425 0.0403353 0.937947 113 109 60
-0.028606 0.0283369 0.00358796 -0.123228 0.307145 0.943651 113 50 40
0.00420242 0.0985783 -0.0166201 0.0591425 0.119603 0.991059 105 103 59
-0.0136331 0.0494272 0.00455797 -0.300589 0.00465123 0.953742 138 135 80
0.0690799 -0.0179232 0.0575659 -0.230134 0.0547448 0.971618 74 39 33
0.0459572 -0.020953 0.0527059 0.0274904 -0.35459 0.934618 29 30 32
-0.0626299 -0.0504619 -0.0399441 -0.14107 -0.571918 0.80809 79 79 56
-0.046161 0.0508474 -0.0102241 -0.691123 -0.0149112 0.722583 93 89 49
-0.00414309 -0.0870445 -0.0172991 -0.0463109 -0.225625 0.973113 101 95 50
0.0171358 -0.0159508 0.0383639 -0.251008 -0.918923 0.304263 27 23 20
0.018962 -0.0828964 -0.0279551 0.318483 -0.155777 0.935041 65 60 38
-0.0629416 0.0459652 -0.028303 -0.0124447 0.425887 0.904691 96 77 63
-0.0213607 0.0714535 -0.00425005 -0.119073 0.836588 0.534735 110 106 58
-0.0239936 0.048119 0.00099093 -0.362101 -0.103573 0.926367 144 141 72
-0.0242762 0.0877679 -0.0237991 -0.413284 0.0175464 0.910433 120 115 63
-0.0200361 -0.0490996 0.00293994 -0.262231 -0.282588 0.922702 135 132 67
-0.047946 -0.0251795 -0.0129061 -0.62325 0.240261 0.7442 112 109 59
0.0391081 -0.000256455 0.0489499 -0.409939 0.433586 0.802467 124 50 42
-0.0364583 -0.0267446 -0.00392103 -0.675918 0.277545 0.682718 135 126 65
0.0116709 0.100837 -0.0179781 0.393527 0.126922 0.910509 110 103 55
-0.013613 -0.0674064 -0.0169591 -0.188933 -0.20588 0.960165 115 113 59
0.0100975 -0.0385447 0.00229192 0.338645 0.181407 0.923261 108 106 57
-0.0248915 0.0355632 0.00164193 -0.369505 0.140509 0.918544 66 68 52
0.00381075 -0.0858251 -0.0179781 0.283327 -0.315577 0.905614 96 93 49
-0.0586163 -0.0403741 -0.0339091 -0.429711 -0.0244616 0.902635 103 99 58
-0.0305196 -0.00184225 0.0350739 -0.701953 -0.675381 0.226104 103 48 40
-0.0217121 0.00623572 0.0439849 -0.266747 -0.480759 0.835294 96 57 78
-0.014964 0.0763702 -0.0115631 0.147437 0.520653 0.840942 129 119 65
0.0475443 0.037127 -0.0276071 0.390175 -0.0237036 0.920435 51 49 37
-0.0178147 -0.0217244 0.00196695 0.0157106 -0.3154 0.948829 106 103 60
0.044844 -0.00971301 0.0541419 -0.000126255 -0.103676 0.994611 124 51 40
-0.025382 0.0247025 0.00713295 -0.527906 0.549724 0.647394 130 55 47
-0.00990802 -0.00855881 0.0407399 -0.140688 -0.592539 0.793161 75 40 35
0.00731034 -0.0767724 -0.0179781 0.320615 -0.0328379 0.94664 97 93 50
0.000899596 0.0645296 0.00131697 0.0699142 0.670636 0.738485 127 124 67
0.000268796 0.0089834 0.0480779 -0.379704 -0.297222 0.876062 121 53 49
-0.0127181 -0.00743306 0.0404439 -0.322397 -0.546429 0.772966 93 42 35
-0.00568609 -0.0315332 0.00358796 0.0850058 0.0839629 0.992836 118 114 60
-0.0117333 -0.0901801 -0.0193411 -0.266895 -0.579346 0.770147 116 113 57
0.0230444 -0.0612427 -0.0213931 0.353675 -0.901873 0.24807 34 33 25
-0.00878998 0.101555 -0.0169591 -0.140498 0.281519 0.949214 115 113 65
0.0209886 0.0376768 -0.00524008 0.305245 -0.31548 0.898498 113 107 56
0.0394034 -0.0246051 -0.0159421 0.748163 -0.303974 0.58979 26 26 22
-0.0607193 -0.0275691 -0.0413761 -0.440029 0.48037 0.758695 90 90 57
0.0238691 0.00186207 0.0524179 0.161024 -0.768436 0.619337 127 51 43
-0.029211 0.104095 -0.0234551 -0.209381 -0.129467 0.969225 93 91 60
0.0438952 -0.00836666 0.0541419 -0.110303 0.078322 0.990807 125 51 42
-0.0582909 -0.0295227 -0.0388731 -0.73151 0.357095 0.580841 106 98 54
0.00632366 0.0922632 -0.0159421 0.187185 0.214036 0.958723 110 107 56
-0.0034813 -0.05141 0.00391197 0.0540178 -0.30924 0.949449 135 132 65
-0.0571756 0.0675648 -0.0272601 -0.314866 -0.286206 0.904956 98 95 56
0.0167191 -0.0844748 -0.0276071 0.454986 -0.247478 0.85542 61 63 40
0.0120919 0.00774288 0.0428079 -0.038587 0.338003 0.940354 125 52 42
-0.0617218 -0.0422371 -0.0370941 -0.694083 -0.287757 0.659882 90 89 56
0.0609894 0.00601898 0.0492399 -0.170493 0.403714 0.898859 67 39 39
-0.00683422 -0.0801838 -0.0162811 -0.0754742 -0.0597231 0.995358 129 119 59
-0.047239 0.060873 -0.0149281 -0.69481 -0.0019941 0.71919 108 101 58
0.0472588 0.00777143 0.0457449 0.18718 0.768522 0.611831 107 46 41
0.0400755 -0.00694981 0.0529939 -0.179902 -0.163966 0.969923 120 51 44
0.0349062 0.0220859 -0.021736 0.459245 -0.170809 0.871733 105 49 38
0.00334721 0.0309713 -0.00755906 -0.0981056 -0.142594 0.984907 47 42 32
0.0445951 -0.00477356 0.0529939 0.0272248 0.211908 0.97691 123 49 38
-0.0209302 -0.0142994 0.00229192 -0.300498 -0.514516 0.803103 34 29 23
-0.00215252 -0.0472963 0.00455797 0.104524 -0.0891701 0.990517 140 135 68
0.0133299 0.0261161 -0.00789106 0.206811 0.0941595 0.973839 102 71 44
-0.0243088 -0.0337267 0.00099093 -0.17461 -0.0033105 0.984632 148 140 65
0.0157587 0.0409663 -0.000967019 0.244698 -0.349552 0.904398 121 117 58
-0.0196607 0.0796408 -0.0169591 -0.370402 0.290851 0.882161 118 114 61
-0.0456141 0.0392645 -0.0102241 -0.598936 0.235834 0.765283 85 80 51
-0.00214299 -0.0183287 0.00358796 -0.0527485 -0.232193 0.971238 31 29 22
0.00662924 0.101456 -0.0169591 -0.0294253 0.0757637 0.996692 117 107 59
-0.00502391 -0.0964525 -0.021736 -0.077757 -0.365262 0.927652 100 94 44
-0.0450112 0.0539014 -0.0105581 -0.663375 0.320646 0.676106 100 94 53
-0.0320103 0.0963936 -0.0272601 -0.276402 -0.109465 0.954787 81 81 51
-0.0160601 0.0499702 0.00391197 -0.29793 0.00291515 0.954583 114 115 63
-0.0118119 -0.0197592 0.00326395 0.0440351 -0.2199 0.974528 81 73 41
0.0447461 -0.0602923 -0.0332051 0.689475 -0.269678 0.672234 30 31 26
-0.00602523 0.0534394 0.00616896 0.0904234 0.27514 0.957142 126 122 70
-0.0143711 -0.0236469 0.00261593 -0.168178 0.183685 0.968492 133 124 69
0.00528188 0.0311598 -0.00689506 -0.166736 -0.226687 0.95959 46 44 30
0.0258767 0.027861 -0.0122341 0.2246 -0.314039 0.922461 47 40 27
0.00489314 -0.0358171 0.00293994 -0.00987975 0.134039 0.990927 104 106 58
-0.00833281 -0.0431157 0.00488097 0.0289334 0.0336578 0.999015 104 108 61
0.0531139 -0.016028 0.0552859 -0.253154 -0.257914 0.932413 81 40 32
0.0322657 -0.0266673 -0.00922304 0.573066 -0.28097 0.769838 56 50 35
0.0300397 -0.0240279 -0.00656408 0.225033 -0.245576 0.942896 42 37 27
0.0308038 -0.0826769 -0.0511611 0.300568 0.101505 0.948344 45 43 32
-0.0274796 -0.0693313 -0.020708 -0.446258 0.00138285 0.894903 123 117 61
0.0121876 0.100103 -0.0179781 0.491772 0.0868875 0.866378 111 105 57
-0.00284393 -0.0949134 -0.020708 0.12054 -0.508318 0.852692 72 68 37
-0.00100852 -0.0335687 0.00326395 0.0135648 0.105327 0.994345 128 123 65
0.00397453 -0.00431841 0.044866 -0.289389 -0.4323 0.854032 120 52 43
0.0226891 -0.047678 -0.00491005 0.434288 -0.14598 0.888867 93 87 46
0.0287453 -0.0125058 0.0472049 -0.428964 -0.407949 0.805957 92 43 34
0.0173182 -0.0641927 -0.0203661 0.524046 -0.718357 0.457536 35 34 24
0.0340448 0.00441439 0.0474959 -0.117709 0.0898477 0.988975 125 52 42
-0.0254079 -0.0723038 -0.0200241 -0.320039 -0.183232 0.929517 121 116 61
-0.0288269 -0.0379018 1.29369e-05 -0.304817 -0.0523552 0.950971 131 125 65
0.00626317 -0.0753192 -0.0176391 0.186556 -0.0551087 0.980898 99 95 52
0.000160696 -0.0157754 0.00520295 -0.101791 -0.785104 0.610942 23 22 17
-0.00474896 0.042751 0.00520295 0.135291 -0.151962 0.979083 141 136 72
-0.0168877 -0.0490642 0.00358796 -0.209541 -0.251181 0.944987 124 127 66
-0.0255691 0.0990111 -0.0237991 -0.406087 0.0524074 0.91233 113 112 61
0.00648594 0.0385475 0.000338974 0.127791 -0.371573 0.919567 126 123 65
0.064299 -0.0161942 0.0552859 -0.686661 -0.304899 0.659949 94 44 37
0.00749934 0.0482767 0.00455797 0.108419 -0.151702 0.982462 124 119 62
0.00417019 0.000566578 0.0480779 0.112687 -0.203608 0.972546 122 49 43
-0.0431542 -0.0115168 -0.0166201 -0.427369 -0.00772172 0.904045 51 46 31
0.00458608 -0.0521068 0.00293994 0.160196 -0.281224 0.946177 115 111 57
-0.00491372 0.0829074 -0.0142531 0.0821907 -0.0473469 0.995491 146 132 67
0.0461164 -0.0027122 0.0532809 -0.203217 -0.0768527 0.976113 123 51 41
0.0765848 -0.00748432 0.0538549 0.296456 -0.298851 0.907085 84 37 33
-0.0270148 -0.0420521 0.000664952 -0.308769 -0.0194564 0.950938 134 129 67
-0.0233024 0.0715752 -0.00623303 -0.348836 0.842188 0.411137 103 102 56
-0.0291107 0.0291055 0.00326395 -0.137267 0.317016 0.938434 101 47 37
-0.0353138 -0.0422515 -0.00260603 -0.55227 -0.0503985 0.83214 127 122 62
0.00520362 -0.061955 -0.0122341 0.115147 -0.757936 0.642086 40 40 28
0.0413281 -0.0253556 -0.0179781 0.469565 -0.347036 0.811834 28 26 22
0.0208312 0.0755766 -0.0186591 0.40841 0.633194 0.657469 97 91 50
-0.0340735 -0.0157073 -0.0102241 -0.710227 0.320066 0.627005 73 64 38
0.0271656 0.0318821 -0.0108931 0.164331 -0.429801 0.887844 54 56 39
0.0573618 -0.0190489 0.0547139 -0.0523526 -0.430897 0.900881 39 29 29
0.0428167 -0.0697146 -0.0570611 0.23164 -0.248156 0.940618 21 22 22
-0.0173843 0.0145918 0.0353739 -0.544309 -0.505317 0.669614 66 62 123
0.0131485 -0.0936399 -0.026912 0.513484 -0.209692 0.832084 42 46 33
0.0168479 0.0685756 -0.00689506 -0.167587 0.662125 0.730415 93 88 47
-0.00845776 -0.074746 -0.0166201 -0.131673 0.034868 0.99068 121 117 61
-0.0135509 0.0462762 0.00455797 -0.325601 -0.177731 0.928653 137 136 76
0.00454844 0.0420657 0.00358796 0.297578 -0.360873 0.883865 127 121 62
-0.0565631 -0.0401515 -0.0328531 -0.624624 -0.118502 0.771882 102 99 58
-0.0260178 -0.0869779 -0.022423 -0.427346 -0.351383 0.83301 109 106 55
0.0243061 0.0421784 -0.00524008 0.416445 -0.216021 0.883125 92 88 52
-0.0211385 -0.0737329 -0.0190001 -0.158424 0.0277111 0.986982 102 102 61
0.0714773 -0.00300745 0.0535679 0.267396 0.514037 0.815025 121 51 44
-0.0226296 0.100598 -0.021736 -0.700483 -0.27186 0.65986 119 119 64
0.00699014 0.0261597 -0.00922304 -0.00682444 -0.64687 0.76257 113 61 43
0.0175802 -0.059846 -0.00889003 -0.214353 -0.931776 0.292994 45 47 31
0.0268773 0.10045 -0.0403021 0.885434 0.0664131 0.459996 62 61 39
-0.0282494 -1.44347e-05 0.0410369 -0.113467 -0.696782 0.708251 125 54 45
0.00656854 -0.0849782 -0.0190001 0.396668 -0.41031 0.821158 88 85 44
-0.0113126 0.105971 -0.0200241 -0.415647 0.270735 0.868297 103 98 67
0.0363648 0.0591005 -0.011228 0.523865 0.219361 0.823071 72 72 45
-0.0348136 0.0518026 -0.00194907 -0.455364 0.0103078 0.890246 117 113 61
0.00751304 -0.0755356 -0.0176391 0.315651 -0.0765463 0.945783 97 93 49
0.0293897 0.0417318 -0.00755906 0.415306 -0.235814 0.878586 84 82 49
-0.0169049 0.0450943 0.00391197 -0.0968619 -0.0324386 0.994769 142 137 72
-0.0596813 -0.0388524 -0.0342621 -0.483621 0.0833618 0.871299 93 95 58
0.00683554 -0.024735 0.00196695 0.0520929 -0.116557 0.991817 108 103 54
0.0781309 -0.00538683 0.0538549 0.50992 -0.122814 0.851409 71 35 31
-0.0272129 -0.0250012 0.000664952 -0.255366 0.0467786 0.965712 140 123 61
-0.0610833 0.049855 -0.0300471 -0.399347 0.255573 0.880457 87 78 58
0.0293683 -0.087106 -0.0511611 0.0102093 -0.12813 0.991705 41 41 30
-0.0480274 0.0714832 -0.0159421 -0.514462 0.226194 0.827142 121 116 91
-0.0349629 -0.0367014 -0.00162208 -0.353097 0.0291409 0.935133 129 122 65
0.0490155 -0.00976299 0.0535679 -0.0857877 0.00481526 0.996302 119 51 42
0.0416409 0.00447679 0.0501099 -0.46277 -0.206179 0.862168 125 54 47
-0.00671517 0.0640493 0.00391197 -0.0829022 0.181491 0.979892 128 124 71
-0.0156378 0.0524088 0.00391197 -0.268847 0.0406348 0.962325 124 124 66
-0.0265285 -0.0137386 0.000338974 -0.510898 -0.335572 0.791438 38 33 28
0.0168377 0.031759 -0.00722706 0.164714 -0.552185 0.817289 58 55 38
0.0206557 0.0314433 -0.00922304 0.394865 -0.625012 0.67338 44 45 29
-0.000235144 -0.0755272 -0.0166201 1.78485e-14 1.71556e-13 1.0 89 90 54
0.0584304 -0.0123075 0.0558569 0.107131 -0.120419 0.986926 121 53 44
-0.0106802 -0.0168501 0.00358796 0.218078 -0.388623 0.895217 38 31 23
-0.026331 -0.0308261 0.000664952 -0.252316 0.0448928 0.966603 131 124 65
0.00582097 -0.0855054 -0.0186591 0.408332 -0.402506 0.819301 90 87 47
-0.0594125 0.0134917 0.0431029 -0.0225994 -0.727137 0.68612 127 56 45
0.00792144 0.0507139 0.00455797 0.0612513 0.0739285 0.995381 126 121 64
0.0336745 -0.0738185 -0.0511611 0.128359 -0.241098 0.961975 26 27 21
-0.0572413 -0.0179071 -0.0449761 -0.568503 -0.00382789 0.822672 91 89 63
0.00701144 -0.00035436 0.0469129 -0.118577 -0.219557 0.968367 123 51 41
0.0768708 -0.00530006 0.0547139 0.216646 -0.192667 0.95705 85 38 33
0.0454287 -0.070167 -0.0570611 -0.227281 -0.311329 0.922723 23 23 23
0.00337942 -0.0336692 0.00293994 0.0769545 0.0546144 0.995538 111 108 59
-0.000213144 -0.0254361 0.00229192 -0.0577421 -0.0998938 0.993321 130 124 62
0.000728526 -0.0661076 -0.0156041 0.174864 -0.314939 0.932864 85 81 44
0.0187314 -0.0686467 -0.0258721 0.734062 -0.158502 0.660326 64 63 37
-0.0137145 -0.0562657 -0.000313041 -0.0953243 -0.619004 0.779582 102 104 58
-0.0369149 -0.0635392 -0.0262191 -0.662798 -0.440311 0.605661 53 47 31
-0.0163403 -0.0422765 0.00391197 -0.0856091 0.101977 0.991096 144 138 72
0.0183976 -0.0239338 -0.000640029 0.157515 -0.0727051 0.984837 74 67 38
-0.030806 -0.0274048 -0.000640029 -0.321928 0.00280142 0.94676 130 124 63
0.0215648 0.0867982 -0.0231111 0.670475 0.0682186 0.738789 77 74 47
-0.00109607 -0.00963669 0.0419229 -0.282059 -0.720695 0.633279 82 40 33
0.0455348 -0.0288284 -0.022423 0.431289 -0.208147 0.877875 30 30 24
0.0144709 0.102066 -0.0196831 0.7018 -0.025866 0.711904 101 95 56
-0.0123641 -0.0265752 0.00326395 -0.074587 0.136229 0.987866 148 143 73
0.0330364 0.022833 -0.0203661 0.648233 -0.306435 0.697059 97 51 40
-0.00659426 -0.0102593 0.0401479 -0.0985809 -0.645101 0.757712 58 33 30
0.0556018 -0.0192597 0.0541419 -0.000795553 -0.504119 0.863634 35 29 26
-0.0653332 0.0560646 -0.0314481 -0.313929 -0.239845 0.918653 96 81 75
-0.0135962 -0.0936745 -0.021736 -0.188247 -0.350185 0.917569 69 71 42
-0.018379 0.0254698 0.00649095 0.384346 0.634124 0.670943 124 56 47
0.0213805 -0.0968608 -0.0332051 0.529399 -0.446735 0.721224 37 36 26
-0.020265 0.0042734 0.0433969 0.000728201 -0.409 0.912534 66 63 132
-0.018914 0.0988065 -0.0169591 -0.667663 -0.262619 0.696604 122 119 63
0.00441997 0.0738712 -0.0125701 -0.134679 0.499756 0.855632 121 111 60
-0.0261166 0.0151954 0.0451589 -0.0494688 0.0379884 0.998053 128 55 46
0.0482288 -0.0213832 0.0529939 -0.33226 -0.441423 0.833516 32 32 35
0.0121621 0.0384316 -0.000967019 0.241698 -0.432179 0.868794 114 111 61
-0.02962 -0.00078059 0.0395539 -0.414318 -0.576541 0.704231 119 53 45
0.0498254 -0.0222877 0.0532809 0.0184761 -0.386467 0.922118 35 34 38
0.00768864 0.0778937 -0.0159421 0.146474 0.219059 0.964655 132 125 66
0.0345884 -0.00240485 0.0486599 -0.0406446 0.378292 0.924793 123 49 40
-0.0104646 0.076742 -0.0139161 0.596731 -0.117103 0.793851 141 129 74
-0.0132519 0.101934 -0.0179781 -0.355324 0.377705 0.855035 113 111 65
-0.00648858 -0.0974857 -0.0220791 -0.0714739 -0.346043 0.935492 116 113 51
-0.0600186 0.0700779 -0.0276071 -0.477574 0.223531 0.849681 108 102 90
-0.0634783 0.0467688 -0.0286511 -0.00276509 0.418544 0.908192 100 79 67
-0.0130579 0.0149117 0.0401479 -0.673124 0.414473 0.612467 57 71 156
-0.034176 0.0554854 -0.00194907 -0.511406 -0.00127056 0.859339 125 121 66
-0.0167323 0.0388996 0.00326395 -0.120354 -0.0444701 0.991734 146 140 72
0.0276114 -0.0268564 -0.00590205 0.418934 -0.207261 0.884046 81 72 41
0.0466318 -0.0356586 -0.0272601 0.578677 -0.445402 0.683191 44 41 29
-0.014654 -0.0216425 0.00196695 -0.164238 -0.141071 0.976281 110 107 59
-0.0464869 0.061189 -0.0139161 -0.745043 -0.0751887 0.662765 108 102 58
0.0242611 -0.0271935 -0.00326306 0.686928 -0.0637559 0.723923 98 92 47
-0.0404979 -0.0835429 -0.0325011 -0.306967 -0.133829 0.942264 106 100 55
-0.0442048 -0.00993563 -0.0176391 -0.670337 0.191962 0.716798 40 36 26
-0.0138564 0.0103288 0.0395539 -0.934522 -0.0983486 0.342046 55 84 202
-0.0306194 0.0812374 -0.0244891 -0.269201 0.438627 0.857402 117 110 61
-0.0229384 0.054111 0.00164193 -0.181253 0.212004 0.960313 117 122 66
0.0201015 -0.0152202 0.0428079 -0.287032 -0.752371 0.592917 38 27 22
0.0546578 0.00670905 0.0480779 -0.26913 0.655119 0.705966 88 44 40
0.0409783 0.0419199 -0.0227671 0.464616 -0.402628 0.788684 74 74 45
0.0546843 -0.054419 -0.0381611 0.282792 -0.35542 0.890902 20 23 23
0.0187098 -0.0258463 -0.000967019 0.202522 -0.0623808 0.977289 99 88 47
-0.0185868 0.00776073 0.0338709 -0.350031 0.317069 0.881445 47 73 186
0.021328 0.0854642 -0.0227671 0.640888 -0.00231768 0.767631 80 79 49
0.0138578 -0.0540038 -0.00162208 0.364712 -0.413319 0.834358 111 110 54
0.0185848 -0.0931911 -0.0300471 0.552327 -0.331891 0.764711 41 44 32
-0.0334656 0.0375496 -0.00129407 -0.301547 0.299558 0.905171 104 103 59
-0.0294908 0.00291747 0.0431029 -0.089922 -0.389543 0.916608 125 54 46
-0.00686896 -0.0692523 -0.0162811 0.000437884 -0.144944 0.98944 115 114 62
-0.0311342 0.0037602 0.0433969 -0.178965 -0.525997 0.831444 124 51 43
-0.0637125 0.0140642 0.0401479 -0.257731 -0.900864 0.349311 102 46 37
0.00236933 -0.0430054 0.00391197 0.207149 0.0249643 0.977991 112 111 58
0.0227692 0.0368531 -0.00590205 0.285059 -0.249642 0.92543 115 107 58
-0.0154135 0.0964277 -0.0149281 -0.303627 0.386372 0.870935 120 111 62
-0.0286967 -0.0335385 0.000338974 -0.254291 0.0224254 0.966868 129 115 61
-0.0226137 -0.00207326 0.0401479 -0.111784 -0.177232 0.9778 123 51 44
-0.0365333 0.0423316 -0.00392103 -0.545601 0.123489 0.828897 110 102 58
0.00258048 -0.0417863 0.00391197 0.168308 0.0384954 0.984983 108 109 60
-0.0116469 0.0847905 -0.01459 -0.185486 -0.178292 0.966337 134 122 65
-0.0488601 -0.0349014 -0.00955605 -0.721308 0.259873 0.642013 109 106 58
0.0429705 -0.00390051 0.0529939 0.0798004 0.112811 0.990407 123 48 38
0.0241809 -0.0681102 -0.0290001 0.535797 -0.212825 0.817085 56 53 35
-0.00575349 -0.0739442 -0.0162811 -6.91434e-14 4.66814e-13 1.0 121 117 59
-0.019635 -0.0836632 -0.0190001 -0.363577 -0.29419 0.883891 119 112 59
0.0512272 -0.0102679 0.0544279 -0.207232 -0.0893306 0.974205 124 49 43
-0.022941 0.0839916 -0.022423 -0.459776 0.167518 0.872092 119 117 63
0.0826784 -0.0112007 0.051842 0.6271 0.116707 0.770146 54 46 36
0.0168828 -0.0613314 -0.0135791 -0.224054 -0.924612 0.308047 36 36 25
-0.0202496 0.10217 -0.0166201 -0.184876 -0.121658 0.975203 118 116 64
0.0751924 -0.0196476 0.0581329 0.12557 0.0395088 0.991298 43 28 27
0.022408 0.0708829 -0.0102241 0.243373 0.871027 0.42671 92 88 47
0.016577 0.0992898 -0.0203661 0.530249 0.342924 0.775396 105 99 53
0.00991804 -0.0607874 -0.0132421 -0.0066677 -0.875637 0.482923 42 42 28
-0.021358 -0.0749984 -0.0186591 -0.126591 0.0567982 0.990328 95 99 58
0.0219106 0.0961414 -0.0244891 0.853628 -0.180072 0.488766 68 68 44
0.0231897 -0.0777022 -0.029349 0.650216 0.139368 0.746857 68 61 38
0.00560855 0.00878856 0.0472049 0.63174 0.277424 0.723837 125 52 44
0.00226156 -0.0547779 0.00196695 0.0757968 -0.687112 0.722587 126 125 63
-0.0108011 0.051198 0.00584793 -0.304444 0.0696483 0.949981 148 148 102
-0.0290521 -0.0857573 -0.0241441 -0.689138 -0.458572 0.561071 109 111 58
-0.0280594 -0.0949529 -0.0272601 -0.201159 -0.146902 0.968481 78 71 40
-0.00305168 0.078887 -0.0149281 -0.059722 0.107639 0.992395 157 139 69
0.0242592 -0.0914746 -0.0328531 0.354707 -0.104419 0.929128 46 47 35
0.0276812 0.0652145 -0.00590205 0.291071 0.260241 0.920626 83 80 51
-0.0580783 -0.0411482 -0.0335571 -0.440197 -0.0845986 0.893907 103 100 59
0.0459067 0.0237978 -0.0279551 0.301286 -0.394033 0.868311 37 24 23
-0.0399646 -0.0537869 -0.00755906 -0.51028 -0.604882 0.611337 104 99 55
0.0269438 0.0462908 -0.00590205 0.278434 -0.0648451 0.958264 93 90 53
-0.0322292 0.0951297 -0.0272601 -0.370156 -0.0201704 0.928751 84 82 50
-0.0111249 0.0281708 -0.00623303 0.536804 -0.279174 0.796181 116 52 44
-0.0321581 -0.0922703 -0.028303 -0.457374 -0.192553 0.868178 76 81 48
-0.0105094 0.0602449 0.00423497 0.00963483 0.236679 0.97154 146 144 104
-0.0141707 -0.0152844 0.00616896 -0.0550301 -0.857476 0.511572 30 26 20
-0.00979951 0.0354676 0.00164193 0.432453 -0.615195 0.659181 177 174 116
-0.0409383 -0.0340924 -0.00524008 -0.432923 0.114478 0.894132 123 116 63
0.00325167 -0.012491 0.0395539 -0.0849129 -0.765508 0.637799 41 28 25
-0.00228556 0.0497231 0.00584793 0.0750126 0.0539201 0.995724 135 129 67
-0.0170113 0.0590552 0.00326395 -0.388383 0.132746 0.911886 116 115 63
0.0119555 0.098772 -0.0176391 0.434011 0.16633 0.88542 114 107 60
0.0281161 0.0493281 -0.00623303 0.307551 -0.0315231 0.951009 91 88 52
-0.00913041 0.0028597 0.0439849 -0.268078 -0.142925 0.952736 44 73 185
0.0203157 -0.0579809 -0.00590205 0.234064 -0.338143 0.911523 63 65 40
-0.0181427 0.0884595 -0.0172991 -0.696664 0.0278446 0.716857 123 116 63
0.0185739 0.103249 -0.0220791 0.274869 -0.180861 0.944318 88 84 56
0.0346797 0.0383066 -0.011228 0.45121 -0.298676 0.840954 79 78 47
-0.0275662 0.0642554 -0.000967019 -0.253416 0.171089 0.952108 144 136 66
0.0420859 0.0546852 -0.0132421 0.589051 0.0481881 0.806657 60 59 40
-0.0486501 -0.0443839 -0.011228 -0.818708 -0.337058 0.464875 109 104 56
-0.00676785 0.0348773 -0.00162208 0.428954 -0.686565 0.58705 133 126 69
-0.0124906 -0.072087 -0.0172991 -0.181069 -0.0624278 0.981487 114 112 63
-0.00540974 -0.0227184 0.00293994 0.102835 0.0748327 0.99188 123 111 57
0.030729 0.029402 -0.0149281 0.649621 -0.296976 0.699855 30 28 24
-0.065155 -0.0210831 -0.0460611 0.221269 0.582154 0.782392 104 104 84
-0.00907135 -0.0220842 0.00293994 0.0836829 0.0623134 0.994542 115 110 62
0.00413783 0.0796425 -0.0152661 0.308916 0.0832053 0.947443 124 115 60
0.0459561 -0.0460291 -0.0339091 0.242843 -0.160727 0.956658 54 53 35
0.0104273 -0.0553758 -0.000640029 0.291792 -0.520345 0.802557 114 111 58
0.0293942 0.0294021 -0.0135791 0.574666 -0.544204 0.611229 32 30 25
0.0308621 0.0428122 -0.00789106 0.373788 -0.238931 0.896211 94 90 53
-0.0305254 -0.0476518 -0.000640029 -0.35494 -0.0598308 0.932973 135 129 66
0.0300294 -0.00148729 0.0477869 -0.23906 -0.645261 0.725595 123 49 41
-0.0289251 0.0836903 -0.0251801 -0.352833 0.303385 0.885137 89 85 51
-0.0346786 -0.011623 -0.0115631 -0.498535 -0.272749 0.822843 40 34 27
-0.0584291 -0.0310233 -0.0363841 -0.831249 0.402785 0.383131 106 99 57
-0.038223 -0.0602524 -0.0227671 -0.552834 -0.726558 0.408028 48 43 28
0.00814384 -0.0915903 -0.0227671 0.398383 -0.339602 0.852034 79 77 43
-0.0578698 0.0450278 -0.0279551 -0.29014 0.24277 0.925679 105 91 56
-0.0145775 0.00271495 0.0389599 -0.300297 -0.214296 0.929461 45 72 183
0.0609067 0.00282952 0.050688 -0.265974 0.595204 0.758281 121 52 44
0.0220956 -0.0598999 -0.0102241 0.367099 -0.815494 0.447447 45 45 31
0.0156244 -0.090795 -0.0276071 0.384847 -0.153687 0.910095 67 68 40
-0.0348921 -0.0633833 -0.0234551 -0.595909 -0.4305 0.67791 52 47 29
0.00972824 0.0645355 1.29369e-05 0.395893 0.471789 0.787835 120 115 60
0.0133999 -0.0232833 0.00131697 0.331314 -0.19712 0.9227 70 65 41
0.0167243 0.077993 -0.0176391 0.529639 0.459346 0.71308 121 111 56
0.0221497 -0.0629614 -0.022423 0.503927 -0.782183 0.366398 27 28 22
0.0171719 -0.0237215 -0.000640029 0.218576 -0.0685732 0.973408 74 67 38
0.0454556 -0.0203107 0.0529939 0.00948714 -0.23954 0.97084 28 28 30
-0.0120803 0.0547422 0.00488097 -0.246953 0.134174 0.959693 129 130 88
0.0469674 -0.0112227 0.0538549 -0.0107043 0.026527 0.999591 120 50 42
0.00685024 -0.0462398 0.00326395 0.119127 -0.0573479 0.991222 124 121 62
-0.000672624 0.0261034 -0.00855708 -0.0869932 -0.692443 0.716208 122 52 45
-0.0261523 -0.0188476 0.000338974 -0.251955 0.0910343 0.963448 72 65 38
-0.0159167 -0.00849406 0.0389599 -0.234924 -0.543081 0.806148 59 35 30
-0.0183871 -0.0838903 -0.0186591 -0.291339 -0.207716 0.933796 127 119 60
-0.0328889 -0.0631548 -0.0220791 -0.465867 -0.557346 0.687265 54 48 30
-0.0105994 -0.087203 -0.0176391 -0.157939 -0.221088 0.96238 111 104 53
0.0378461 0.00600243 0.0483689 -0.260621 -0.0434554 0.964463 122 55 47
-0.0485374 0.0165107 0.0463289 -0.514844 -0.129812 0.847399 132 57 48
0.0423221 -0.0409607 -0.0251801 0.806396 -0.359592 0.469487 66 64 41
-0.0332334 -0.0189626 -0.00491005 -0.668804 0.505798 0.544858 85 75 43
-0.00779467 0.0577625 0.00488097 0.0235647 0.331118 0.943295 123 130 90
-0.0141185 -0.043943 0.00423497 -0.123232 0.0570963 0.990734 140 138 71
-0.0241975 -0.0476783 0.00196695 -0.267117 -0.205767 0.94144 141 139 67
0.00900014 0.0854536 -0.0162811 0.187288 -0.00634984 0.982285 116 109 57
-0.0160145 0.105019 -0.020708 -0.0124822 0.106792 0.994203 109 108 66
0.00634694 -0.078552 -0.0176391 0.333801 -0.00267351 0.94264 100 93 51
-0.000583474 -0.0418939 0.00423497 0.0838533 0.0799479 0.993266 135 128 63
0.0217559 0.0302068 -0.0105581 0.327578 -0.291155 0.898844 32 31 24
0.0407318 -0.0290436 -0.0186591 0.704417 -0.376679 0.601589 43 40 29
-0.0189479 0.0914093 -0.0183191 -0.871303 -0.0581402 0.48729 120 116 63
0.00114402 0.0659533 0.000338974 -0.0605138 0.568421 0.820509 131 126 65
0.0784847 -0.0132163 0.0544279 0.596431 0.515614 0.615152 54 32 30
0.0504998 -0.0218125 0.0532809 0.126243 -0.27363 0.953514 33 32 36
0.00100831 -0.0256476 0.00229192 -0.067334 -0.0739448 0.994987 132 128 65
-0.0130798 0.0311091 0.00099093 0.660576 -0.239996 0.711366 63 58 38
0.0198907 0.0267551 -0.0108931 0.190707 -0.273025 0.942915 86 70 43
-0.0325277 0.0773834 -0.0231111 -0.314726 0.476499 0.820912 105 106 59
0.0530665 -0.0130288 0.0549999 -0.427054 0.0730874 0.901267 122 50 44
-0.0117243 0.0156033 0.0419229 -0.829049 0.144136 0.54028 66 68 137
-0.0345708 -0.052394 -0.00425005 -0.550974 -0.470113 0.689508 133 123 64
0.0258078 0.0686557 -0.00855708 0.335502 0.717104 0.610902 91 88 51
0.0717258 -0.016067 0.0578499 -0.0490036 0.0464387 0.997718 98 43 37
-0.00705572 0.0890489 -0.0142531 0.0709424 -0.129324 0.989061 118 114 62
-0.0120077 0.0625202 0.00358796 -0.0958209 0.399974 0.911504 110 115 70
0.0138395 -0.0208037 0.00099093 0.433459 0.0752048 0.89803 38 35 25
0.0588589 -0.00386622 0.0541419 -0.0790895 0.091136 0.992693 121 52 44
0.020052 -0.00750339 0.0477869 -0.0986346 -0.565354 0.81893 126 51 45
0.000823316 -0.0923279 -0.0203661 0.313329 -0.446789 0.837976 78 82 47
-6.19839e-05 -0.0896517 -0.0183191 0.21071 -0.400531 0.891726 107 104 53
-0.0321498 0.0338905 0.000338974 -0.225092 0.307893 0.924411 114 106 57
-0.0255163 -0.0151749 0.000338974 -0.40543 -0.148616 0.901964 48 42 28
-0.0332052 0.00288971 0.0392569 -0.671067 -0.515896 0.532467 126 52 45
0.0488384 -0.0297178 -0.0255261 0.632183 -0.555528 0.540123 27 28 24
-0.0460181 -0.0375748 -0.00623303 -0.361717 0.0202646 0.932068 113 110 60
-0.0657053 0.0451993 -0.0286511 -0.31636 0.196533 0.928058 106 77 71
-0.00227994 0.00112984 0.0477869 -0.00658004 -0.00592855 0.999961 96 54 75
0.0657843 -0.0171978 0.0564269 -0.534143 -0.107418 0.838542 78 39 34
0.0449459 0.0220105 -0.0279551 0.46024 -0.387029 0.798992 73 35 31
0.0121479 -0.0413585 0.00164193 0.512673 0.156816 0.844142 124 117 59
0.0258461 0.106123 -0.0385171 0.881995 -0.249094 0.400047 69 64 50
-0.0611136 0.0637582 -0.0276071 -0.131273 -0.202586 0.970426 87 83 57
0.0143069 0.0862941 -0.0183191 0.489576 -0.0529697 0.87035 111 105 56
0.0274543 0.103525 -0.0424531 0.829277 0.199496 0.522016 58 57 40
-0.0153696 0.015544 0.0386619 -0.321061 0.331324 0.887212 72 64 116
-0.0183831 0.00893723 0.0338709 -0.259149 0.0929107 0.961358 47 74 194
-0.0412069 0.0336367 -0.00392103 -0.485593 0.541325 0.686415 74 64 45
0.00806654 0.106055 -0.0183191 0.467713 0.315017 0.825838 64 65 56
-0.0278905 0.0288411 0.00358796 -0.207091 0.30432 0.929786 104 48 39
-0.0403437 -0.0140418 -0.0156041 -0.463863 0.29704 0.834625 73 66 38
-0.0276472 0.0677657 -0.00260603 -0.465534 0.649746 0.600923 143 137 68
0.0195309 -0.0510146 -0.00392103 0.618027 -0.193204 0.762046 106 100 51
0.0124765 0.0586794 0.00164193 0.623332 0.353251 0.697618 121 119 61
-0.0269455 0.0493211 0.000664952 -0.22615 0.0149304 0.973978 124 121 64
0.0241705 -0.0315427 -0.00392103 0.660161 -0.18152 0.728861 84 82 46
-0.022777 -0.0683085 -0.0186591 -0.173324 -0.204623 0.963373 120 115 61
0.0246034 -0.081163 -0.0303971 0.713866 0.223511 0.663655 61 58 37
-0.0621581 0.0514697 -0.0307471 -0.392573 0.123726 0.91136 93 79 61
0.00935024 0.0517209 0.00455797 0.0965912 0.0899398 0.991252 124 119 63
0.0110828 -0.0939691 -0.0255261 0.583838 -0.287205 0.759372 44 45 29
0.0282454 -0.0685709 -0.0332051 0.460614 -0.450581 0.76473 44 43 30
0.00916734 0.0789982 -0.0162811 0.0617418 0.0868219 0.994309 129 123 64
0.0293909 0.0777052 -0.0349681 0.849056 0.204088 0.48729 74 71 45
-0.00889764 0.011108 0.0445729 -0.301306 -0.0222512 0.953268 47 76 192
0.0188563 -0.0322189 -0.000640029 0.263006 -0.0112264 0.964729 107 100 52
0.00133139 -0.00223024 0.0460369 0.0873378 -0.690968 0.71759 126 53 46
0.0388819 0.0337448 -0.0220791 0.508845 -0.0962944 0.855456 56 58 39
-0.0117781 0.0639372 0.00261593 0.0424352 0.578445 0.814617 117 120 69
-0.00481613 0.038779 0.00293994 0.227503 -0.784741 0.576562 127 124 65
-0.00189711 0.104219 -0.0169591 0.192607 0.406756 0.893002 98 95 60
0.0560013 -0.012987 0.0552859 -0.207831 0.0912088 0.973903 119 51 42
0.0384735 0.0312882 -0.022423 0.419307 -0.134794 0.897782 34 36 27
-0.0414044 0.0672555 -0.0102241 -0.435395 0.482401 0.760079 137 129 64
-0.0170512 -0.0427549 0.00358796 -0.0979163 0.0455992 0.994149 141 137 73
0.0589345 -0.0129447 0.055572 0.313309 -0.270203 0.9104 119 53 43
0.0598979 0.00630241 0.0486599 -0.181698 0.427434 0.885599 68 39 38
0.0584459 -0.0092378 0.0549999 0.0413205 0.237884 0.970414 127 52 44
0.0016543 -0.0327419 0.00293994 0.0935773 0.10841 0.989692 117 117 59
0.00595566 -0.00307183 0.0463289 -0.232162 -0.17559 0.956697 123 50 40
0.00397382 0.0532792 0.00455797 0.0752833 0.0540919 0.995694 112 111 61
-0.0207646 0.0446839 0.00293994 -0.377108 -0.0312064 0.925643 111 108 59
-0.00489047 -0.0449662 0.00488097 0.0329694 0.108034 0.9936 138 132 69
0.00900824 -0.0744744 -0.0183191 0.493586 -0.0749143 0.866464 96 87 47
0.0324335 -0.0254946 -0.00855708 0.586301 -0.417865 0.694003 46 41 30
-0.00937091 0.0118332 0.0442789 -0.268843 0.0517681 0.961792 48 76 188
0.0572543 -0.0200995 0.0538549 -0.189044 -0.603531 0.774605 33 29 30
-0.058918 -0.025427 -0.0392301 -0.802003 0.0226225 0.596892 90 88 57
-0.00268728 -0.086021 -0.0169591 0.0635774 -0.210359 0.975555 87 85 48
0.0217616 -0.0121431 0.0445729 -0.202835 -0.292205 0.934598 80 40 34
