ply
format ascii 1.0
comment Created by CloudCompare v2.11.1 (Anoia)
comment Created 4/4/21 15:31
obj_info Generated by CloudCompare!
element vertex 665
property float x
property float y
property float z
property uchar red
property uchar green
property uchar blue
property float nx
property float ny
property float nz
end_header
0.0020524 -0.0539518 -0.0175711 79 80 95 0.189657 0.318905 0.928617 
0.0360319 -0.0414131 -0.00624605 121 111 52 0.211856 0.193202 0.958014 
0.0171702 -0.0139633 0.0375819 100 67 71 0.0395622 0.0566702 0.997609 
0.0171466 0.0598119 -0.0398171 67 67 34 -0.430672 0.373461 0.821614 
0.0292724 -0.00768144 0.0395279 124 51 38 0.170934 0.150676 0.973693 
0.0165677 -0.000691243 0.0364649 117 57 54 0.0858124 0.0926774 0.991991 
-0.0075279 -0.037916 -0.0056261 85 83 43 0.16977 0.0265626 0.985126 
0.0198609 0.0536103 -0.0351421 55 54 30 0.156721 0.0285987 0.987229 
-0.0862388 -0.0137585 -0.0301891 174 162 68 0.318246 -0.0421772 0.947069 
-0.0696831 0.0123033 -0.0421731 113 106 50 -0.62342 0.663319 0.413951 
-0.01773 0.0567674 -0.0331541 174 156 61 0.223363 0.152827 0.96268 
0.0301433 -0.0274811 -0.00780108 129 125 54 0.080882 0.0945522 0.992229 
-0.0198715 -0.00890524 0.0314009 50 90 181 0.187081 0.263552 0.94633 
0.0208522 -0.0312167 -0.00780108 98 100 48 -0.104738 0.00755841 0.994471 
-0.0273829 -0.0348062 -0.0071791 176 166 64 0.0131405 -0.021227 0.999688 
-0.0695887 0.00681176 -0.0331541 143 134 56 0.0883659 0.38745 0.917646 
0.0751795 0.00375106 0.0433929 145 55 40 0.0924238 0.191009 0.977227 
-0.0791167 0.00654456 -0.0348101 100 98 46 0.264859 0.487897 0.831749 
0.00404599 -0.0423391 -0.00500705 160 150 59 -0.443708 -0.560036 0.69963 
0.0236785 -0.0403731 -0.00811311 108 115 55 0.1788 -0.194461 0.964477 
0.00698483 0.0157536 0.0336589 62 82 165 -0.363862 0.197032 0.910375 
0.04699 -0.0162571 -0.0318331 119 111 50 -0.203876 -0.122832 0.97126 
0.0357078 0.0119351 0.0356249 137 52 36 0.251069 0.652148 0.71531 
0.014825 -0.0345248 -0.00500705 126 123 56 -0.354587 0.131073 0.92579 
0.0282913 -0.021975 -0.00842508 117 117 52 -0.128603 0.0908477 0.987526 
0.0129918 0.0546557 -0.0344781 81 76 36 -0.213937 -0.169312 0.962062 
0.0860976 0.0158914 0.0433929 130 49 35 -0.0303272 0.0407849 0.998708 
-0.0166979 -0.0135348 0.0336589 49 88 181 0.204145 0.106456 0.973135 
-0.0241291 0.0625757 -0.0371391 157 143 57 0.439361 0.0584907 0.896405 
0.0348203 -0.00447024 0.0400829 131 51 37 0.20563 0.134106 0.969398 
0.000242968 0.0546761 -0.0315041 142 132 53 -0.200469 -0.0516179 0.978339 
0.0739779 -0.0125414 -0.0285501 130 122 51 0.0549449 -0.567764 0.821356 
-0.0242691 0.0616981 -0.0371391 157 142 56 0.476022 0.127994 0.87007 
0.0174312 -0.000832643 0.0367439 129 56 48 0.127915 0.0610766 0.989903 
-0.0896954 -0.029396 -0.0331541 124 116 54 0.120438 -0.17507 0.977162 
-0.0214081 0.058347 -0.0344781 163 149 60 0.306597 0.21052 0.928267 
0.0195093 -0.0151577 0.0378599 136 61 45 0.0296845 0.210166 0.977215 
-0.00634686 -0.00609314 0.0339409 51 93 203 0.208775 0.192817 0.958767 
0.0266306 0.0169647 0.0279889 133 52 37 -0.389264 0.760612 0.519561 
0.0835266 0.00975776 0.0436679 145 53 39 0.0683532 -0.0862819 0.993923 
-0.069159 0.0131457 -0.0438641 107 102 49 -0.247148 0.63125 0.735147 
0.0155874 0.0599785 -0.0388111 76 73 35 -0.442356 0.288225 0.849263 
0.011071 -0.0225747 0.00083194 106 95 49 -0.210911 -0.453234 0.866081 
-0.0149913 0.0127188 0.0305499 49 89 191 -0.476914 0.316368 0.820039 
0.0383393 -0.00913724 0.0409129 142 60 43 0.149416 -0.137067 0.979228 
-0.0173311 -0.0416489 -0.00780108 161 150 61 0.142464 -0.39636 0.906974 
-0.0104364 0.00118116 0.0328139 52 93 195 0.0321901 -0.213408 0.976433 
-0.102269 -0.0246912 -0.0328232 158 149 63 0.0961522 -0.0984692 0.990484 
-0.102077 -0.00592304 -0.0331541 155 145 62 -0.152817 0.191342 0.969554 
0.0483369 0.00154276 0.0414649 140 55 39 0.2044 0.0879541 0.974928 
-0.0645161 -0.0180404 -0.0269181 186 171 67 0.0589954 -0.135342 0.989041 
-0.0057644 -0.038186 -0.0053161 100 92 42 0.174946 0.0125778 0.984498 
0.0164629 0.0487422 -0.0348101 57 55 32 0.239653 0.0479307 0.969675 
-0.00912174 -0.0315909 -0.0056261 163 145 60 0.162432 -0.0854272 0.983015 
-0.0799824 0.0212395 -0.0448821 67 70 91 -0.104747 0.665366 0.739132 
-0.0119638 0.0566226 -0.0315041 178 158 61 0.241687 0.00833402 0.970319 
0.00505343 0.0531104 -0.0328232 106 101 44 -0.195613 -0.261274 0.945236 
-0.0921883 -0.00570844 -0.0331541 158 148 64 0.286906 0.272489 0.918387 
0.0134022 0.069777 -0.0435251 82 79 37 -0.409241 0.0720591 0.909576 
0.0261514 -0.0190232 -0.00842508 106 106 50 -0.0268802 0.0763399 0.996719 
-0.0201148 0.0463588 -0.0324931 115 108 52 0.257517 0.153443 0.954013 
0.0108812 -0.0121378 0.0375819 55 91 156 0.0754434 -0.166454 0.983159 
0.00707783 0.0545784 -0.0328232 106 101 42 -0.214225 -0.261216 0.941209 
-0.00965355 -0.00473694 0.0330959 50 91 195 0.0384839 0.0912618 0.995083 
0.00550213 0.0620204 -0.0331541 127 116 46 -0.133379 0.300439 0.944429 
0.067821 -0.0240614 -0.0338161 132 124 52 -0.424127 -0.637023 0.643676 
-0.00160404 0.00635106 0.0350649 49 92 193 0.168741 -0.136243 0.976199 
-0.0311444 -0.025437 -0.00407907 101 95 43 -0.076544 -0.299689 0.950961 
0.0899523 0.0144601 0.0433929 92 38 31 -0.0877653 0.120531 0.988822 
0.0252351 0.0666291 -0.0496621 26 26 20 -0.601978 0.263859 0.753658 
0.0303346 -0.0379278 -0.0071791 146 141 61 0.011954 -0.105413 0.994357 
0.0253318 0.000354757 0.0381389 140 54 39 0.210874 0.112382 0.971032 
0.0179128 0.0719386 -0.0452221 50 52 30 -0.462553 0.025474 0.886225 
0.0207373 -0.0416657 -0.00873705 118 120 55 -0.0111954 -0.314715 0.94912 
-0.0886434 0.000875062 -0.0364731 135 132 58 0.692377 0.319434 0.646975 
-0.00681229 0.0476703 -0.0301891 124 113 52 -0.166398 0.024099 0.985764 
0.0460042 0.0142458 0.0400829 138 52 35 0.295919 -0.0736568 0.952369 
0.0688566 -0.0117307 -0.0278961 120 111 47 0.110769 -0.660184 0.742891 
0.0267365 -0.00151724 0.0384169 143 57 43 0.10706 0.0529665 0.992841 
-0.0750486 -0.020835 -0.0278961 139 128 55 0.129902 -0.159594 0.978598 
-0.0978309 -0.0200161 -0.0324931 162 152 63 -0.00101049 0.0353671 0.999374 
0.0307697 0.0145796 0.0296979 131 51 37 -0.119635 0.857627 0.500163 
0.00568893 -0.0527886 -0.0178901 74 75 88 0.249068 0.161162 0.954983 
-0.0232386 -0.031113 -0.00686809 104 100 47 -0.00341381 -0.17638 0.984316 
0.018119 -0.0421074 -0.00842508 123 126 57 -0.324618 -0.235168 0.916144 
-0.00508347 -0.0545732 -0.0175711 72 73 86 -0.0300228 0.0320933 0.999034 
0.00347924 0.0596031 -0.0324931 134 126 49 -0.188596 0.113657 0.975455 
-0.0387366 -0.033041 -0.00842508 141 129 55 0.136153 -0.0446215 0.989682 
0.00153844 0.0682039 -0.0351421 144 130 51 -0.326379 0.372348 0.868812 
-0.00664047 0.0130468 0.0305499 51 89 191 0.250495 0.372037 0.893779 
0.0346928 -0.00526984 0.0400829 125 48 34 0.170934 0.150676 0.973693 
0.0457263 -0.0196291 -0.0308461 118 103 44 -0.432025 0.183061 0.883087 
0.093296 0.00155626 0.0472199 64 31 27 0.0270936 0.0856157 0.99596 
0.0568874 -0.00312554 0.0431179 115 49 35 0.0928507 0.0905581 0.991553 
0.0623806 -0.00482314 0.0433929 134 56 42 0.109243 -0.00540805 0.994 
0.0292152 -0.0212551 -0.00873705 108 109 50 -0.129085 0.049121 0.990416 
-0.0332181 0.0615497 -0.0401532 89 81 54 0.310946 0.16722 0.935602 
0.0148579 -0.02847 -0.0053161 114 105 56 -0.516298 0.104985 0.84995 
0.036666 0.00922496 0.0384169 137 52 38 0.219497 0.434515 0.873509 
-0.0157271 0.0128293 0.0308339 48 89 190 -0.510111 0.258932 0.820208 
-0.0631703 -0.00402594 -0.0269181 180 159 62 0.309752 0.2892 0.905769 
-0.0298775 0.0712395 -0.0435251 86 83 49 0.337509 0.402833 0.850772 
-0.024493 0.00840626 0.0316839 49 91 190 0.329006 -0.190626 0.924888 
0.0636108 0.0154901 0.0411889 135 52 39 0.108786 0.549733 0.828226 
0.0298704 -0.0404706 -0.00749006 118 113 54 0.165604 -0.109176 0.980131 
-0.000981235 -0.0276288 -0.00315406 84 89 49 0.0814796 -0.0658533 0.994497 
-0.0760088 0.00784056 -0.0341471 127 123 53 0.288585 0.445995 0.847235 
0.0498897 -0.0211881 -0.0311751 136 125 56 -0.0152519 -0.0274534 0.999507 
-0.0185438 0.0578172 -0.0334851 169 154 60 0.283784 0.117473 0.951665 
0.0168779 0.0702239 -0.0445421 66 64 32 -0.343826 0.0562148 0.937349 
-0.0888186 -0.0259168 -0.0321631 150 140 61 0.212212 -0.177942 0.960886 
-0.0194402 0.044442 -0.0321631 137 132 58 0.212212 0.177942 0.960886 
0.00390098 0.0515032 -0.0328232 103 97 44 -0.19375 -0.170344 0.966149 
0.0687562 -0.0161584 -0.0298601 149 139 55 -0.0617788 -0.266027 0.961984 
0.00375521 0.062299 -0.0331541 135 123 47 -0.174342 0.358605 0.917065 
-0.094308 -0.00360164 -0.0351421 148 143 65 0.107707 0.733294 0.671326 
-0.0301996 -0.0197151 0.0302669 55 94 191 0.133523 -0.0235629 0.990766 
0.0453446 -0.0293697 -0.0292051 44 38 26 -0.404961 0.895559 0.184337 
-0.0124825 -0.0354125 -0.00624605 121 114 55 0.217491 -0.193474 0.956695 
-0.0291839 -0.0190415 0.0305499 55 93 188 0.129698 -0.129698 0.983035 
0.011228 -0.0269815 -0.00315406 134 129 65 -0.265239 -0.282444 0.921886 
-0.0248284 -0.0395838 -0.00780108 165 155 62 0.0530966 -0.332825 0.941493 
-0.0959835 -0.014045 -0.0324931 163 152 66 -0.000977516 0.000977516 0.999999 
-0.0233087 -0.0276023 -0.00593611 73 78 41 -0.223364 -0.188588 0.956317 
-0.0397707 -0.0257841 -0.00377109 141 122 57 -0.0286122 -0.289854 0.956643 
0.0114167 0.00669566 0.0375819 51 87 177 -0.00656453 -0.437198 0.899341 
-0.0967676 -0.00144194 -0.0381411 136 134 63 -0.0124398 0.794767 0.606787 
0.0389734 0.00719026 0.0392509 142 54 38 0.151244 0.0845538 0.984874 
-0.0350302 -0.0414921 -0.00904908 141 135 70 0.0143987 -0.414943 0.909733 
0.0397006 -0.00608094 0.0411889 122 50 36 0.22461 0.124498 0.966463 
0.00927543 0.00130736 0.0356249 53 92 191 0.168269 -0.0883716 0.981772 
-0.00268882 0.0587198 -0.0315041 161 146 56 -0.0241944 0.337448 0.941033 
-0.059475 -0.00994304 -0.0262661 191 172 65 -0.203755 0.101252 0.973772 
-0.025179 -0.0171685 0.0319669 51 92 197 0.28308 -0.210567 0.935696 
-0.0340302 -0.00830894 0.0308339 106 67 83 -0.174088 0.227245 0.958151 
0.0569244 -0.0259003 -0.0328232 126 116 50 -0.0795859 -0.109575 0.990787 
-0.000735744 -0.00286024 0.0345029 52 90 187 0.188191 0.11092 0.975849 
0.00878103 -0.0187418 0.00326589 79 46 34 -0.40969 0.217417 0.885937 
-0.0219082 -0.0127172 0.0322488 46 85 176 0.0930388 0.245979 0.964799 
-0.0152693 -0.0306376 -0.00655707 110 102 44 0.118669 -0.0255083 0.992606 
0.0303782 0.00696236 0.0375819 139 54 40 0.278332 0.216791 0.935699 
-0.0531281 -0.03238 -0.0288771 127 116 50 0.724949 -0.015365 0.688631 
-0.0156946 0.0111405 0.0319669 49 89 190 -0.483809 0.557468 0.674654 
-0.0153653 -0.0262736 -0.00624605 163 151 60 0.118225 -0.177959 0.97691 
0.0454416 -0.00700574 0.0420169 139 57 41 0.117738 -0.0628695 0.991053 
0.0686174 -0.0170287 -0.0298601 148 138 55 -0.140785 -0.183908 0.972809 
-0.034839 -0.00817994 0.0308339 118 70 65 -0.249134 0.235216 0.939471 
0.0552903 0.0143492 0.0414649 134 52 37 0.00932923 0.473125 0.880946 
-0.0864613 -0.00214834 -0.0338161 151 145 63 0.312007 0.320965 0.894222 
0.0797678 0.000531555 0.0447639 131 51 36 0.159474 0.295777 0.941851 
0.088132 -0.00324774 0.0447639 140 55 40 -0.153407 -0.370147 0.916219 
0.00851453 0.0655564 -0.0381411 109 103 44 -0.566534 0.4303 0.702767 
0.0568523 0.01326 0.0420169 136 50 36 0.0982799 0.1638 0.981586 
-0.0222231 -0.00189624 0.0308339 49 87 184 0.0685058 -0.0864746 0.993896 
0.000326886 -0.00137824 0.0345029 49 88 181 0.169357 -0.0432152 0.984607 
-0.061288 -0.00520834 -0.0259411 183 166 64 0.124207 0.339864 0.932237 
-0.0209679 -0.0332122 -0.00686809 150 144 58 0.0309354 -0.0650711 0.997401 
0.0331497 0.0106765 0.0361849 133 52 37 0.0676628 0.750049 0.657912 
0.0926734 -0.00476754 0.0439418 80 39 31 -0.0290342 -0.316852 0.948031 
-0.000904455 -0.0168536 0.0361849 54 89 166 0.165962 0.133518 0.977052 
0.0319105 -0.000708043 0.0389728 142 55 40 0.115465 0.0651635 0.991172 
0.00596013 0.044362 -0.0384761 85 77 37 -0.193031 -0.238927 0.951658 
0.0165011 -0.0383086 -0.00655707 138 133 55 -0.314933 -0.259783 0.912869 
0.042799 0.00409036 0.0403589 141 53 38 0.166614 0.0579012 0.984321 
0.0149383 -0.0513666 -0.0125001 58 60 61 -0.180461 -0.447484 0.875895 
-0.00105562 -0.047927 -0.0121851 122 119 57 -0.179233 0.537698 0.823867 
0.081299 0.00603166 0.0436679 134 53 37 0.0928697 0.0882835 0.991757 
0.0207371 0.00440416 0.0367439 142 54 42 0.053835 0.19261 0.979798 
0.0181371 -0.0264361 -0.00780108 152 146 59 -0.39699 0.0772302 0.914568 
0.0110322 0.0531495 -0.0341471 81 78 37 -0.22567 -0.390866 0.892355 
-0.00642175 -0.0135099 0.0350649 52 91 188 0.135383 0.132944 0.981834 
-0.0268044 0.0475644 -0.0348101 127 114 51 0.296976 0.29405 0.908482 
-0.0202886 0.00359256 0.0316839 47 91 191 0.00937584 -0.494241 0.869274 
-0.0715498 -0.00447654 -0.0278961 186 166 64 0.0415586 0.29091 0.955847 
-0.0151307 -0.00137674 0.0322488 47 86 186 0.223059 -0.0226638 0.974541 
-0.062803 -0.00852364 -0.0262661 194 178 67 0.0441972 0.0614449 0.997131 
-0.0752999 -0.00565924 -0.0278961 179 160 61 0.151335 0.34571 0.926058 
0.0475262 0.0131728 0.0403589 134 51 35 0.188518 -0.0766233 0.979076 
-0.00331067 0.0543249 -0.0311751 159 143 55 -0.0910625 0.0383998 0.995105 
-0.0141826 -0.0177453 -0.0034621 53 71 116 0.476856 -0.563861 0.674291 
-0.0915501 -0.0291136 -0.0334851 119 113 54 0.0917194 -0.073602 0.993061 
-0.00436773 0.0599075 -0.0318331 167 149 56 -0.0124893 0.162361 0.986652 
0.0344409 -0.0281612 -0.00749006 124 123 57 0.0872954 0.154262 0.984166 
0.0417517 -0.0354412 -0.00873705 57 56 33 -0.845616 -0.0958651 0.525112 
0.0372125 -0.0329424 -0.0071791 105 107 63 0.0430496 -0.247228 0.968001 
0.0490463 0.0121008 0.0406359 131 49 34 0.187143 -0.146404 0.971362 
0.00512413 0.0101945 0.0364649 50 90 191 0.0470571 0.680189 0.731524 
0.0467078 -0.0278573 -0.0331541 74 66 36 0.136918 -0.030552 0.990111 
0.0354764 0.0137098 0.0330959 141 52 38 0.279958 0.842968 0.459379 
-0.00793463 0.0523355 -0.0305171 168 153 61 -0.0452162 0.156517 0.98664 
-0.0768868 -0.020551 -0.0282231 150 135 55 0.0875014 -0.154626 0.984091 
0.0118451 -0.0323003 -0.00438806 123 113 47 -0.312109 -0.160867 0.936328 
-0.00713026 -0.047653 -0.00842508 123 119 58 -0.369752 0.430055 0.823611 
-0.0259107 0.0638122 -0.0378071 149 138 56 0.314656 0.0995747 0.943968 
0.00374381 -0.0309684 -0.00284608 154 149 59 -0.0926932 -0.155291 0.98351 
-0.0715818 -0.0294618 -0.0295321 154 146 59 -0.169154 -0.136576 0.976081 
-0.0217198 0.0686041 -0.0384761 162 148 58 0.370994 0.233154 0.89889 
-0.0151542 -0.0254323 -0.00593611 153 144 57 0.125993 -0.173397 0.97676 
-0.00432204 -0.0183836 0.00205091 101 55 49 0.212938 -0.104579 0.971453 
0.0330349 -0.0253378 -0.00811311 133 130 57 -0.0532633 0.339067 0.939253 
-0.0170909 0.0113449 0.0328139 47 88 190 -0.391026 0.498112 0.77394 
-0.0130985 0.00903666 0.0336589 48 91 197 0.0513246 0.514633 0.855873 
-0.0309277 -0.0245982 -0.00377109 102 76 40 -0.0821936 -0.375935 0.922994 
0.092503 0.00168266 0.0472199 76 35 29 0.106707 0.168033 0.979989 
-0.0620368 -0.000651539 -0.0278961 167 152 60 0.0426084 0.342158 0.938676 
0.0237629 -0.00432694 0.0381389 143 56 41 0.177748 0.162403 0.970583 
0.00684053 -0.0209984 0.0038719 37 33 32 0.0208421 -0.615537 0.787832 
0.033418 -0.034944 -0.0071791 125 117 61 0.0651767 0.222585 0.972732 
-0.0107616 -0.0269707 -0.00469711 156 150 60 0.305976 -0.282552 0.909144 
-0.0105065 -0.0348391 -0.0056261 90 92 44 0.218697 -0.243455 0.944935 
-0.0234436 -0.0284484 -0.00593611 78 83 42 -0.1637 -0.216084 0.962554 
-0.037446 -0.0358573 -0.00842508 139 132 54 0.149318 -0.216835 0.964721 
0.0892503 -0.00181034 0.0453108 129 53 40 -0.0709669 -0.705324 0.705324 
-0.0167314 0.0657029 -0.0348101 177 157 60 0.477673 0.18601 0.858621 
-0.0818764 -0.0305361 -0.0305171 116 114 52 0.254117 -0.448889 0.856693 
-0.0139592 -0.00487644 0.0325319 47 89 191 0.253525 0.0611956 0.965391 
0.0479268 -0.00167634 0.0420169 143 55 40 0.152277 0.159828 0.975329 
-0.0250127 0.0118215 0.0308339 50 87 183 0.187335 0.44695 0.874724 
0.021945 0.0540998 -0.0341471 53 50 29 0.298955 0.0521582 0.952841 
0.0637542 -0.0189303 -0.0305171 149 138 55 0.133644 -0.22966 0.964052 
-0.101273 0.00277016 -0.0590311 125 125 58 -0.0518982 0.834579 0.548438 
0.0871615 0.00671916 0.0439418 136 52 39 -0.0112945 0.0420977 0.99905 
-0.00215221 0.00808886 0.0350649 50 90 193 0.228306 0.00828053 0.973554 
0.0544944 0.0228018 0.0386949 24 20 22 -0.23263 0.436744 0.868986 
0.075434 -0.0243916 -0.0368061 114 107 51 -0.321635 -0.274638 0.906159 
0.0198682 -0.0206286 -0.00811311 158 148 65 -0.172867 0.193664 0.965718 
4.87789e-05 0.0731186 -0.0371391 111 109 45 -0.454873 0.371879 0.809195 
-0.034382 -0.00327564 0.0296979 102 67 92 -0.0194972 0.393844 0.91897 
0.0206187 -0.0381357 -0.00780108 130 128 56 -0.180483 -0.0994499 0.978537 
-0.03452 0.0515502 -0.0358071 61 57 72 -0.755418 0.312753 0.575786 
0.0646519 -0.00110874 0.0436679 129 61 42 0.0714794 0.0964404 0.992769 
0.0499821 0.00127416 0.0417409 142 55 39 0.106932 0.109282 0.988242 
-0.0128108 -0.0275334 -0.0056261 159 150 63 0.352634 -0.298613 0.886837 
0.0400002 -0.0325052 -0.00655707 71 73 39 -0.151347 -0.208264 0.966292 
0.0512511 0.0150044 0.0411889 135 53 37 0.0904628 0.305476 0.947893 
-0.010517 0.00449186 0.0336589 52 91 192 0.0180018 -0.238824 0.970896 
-0.0797325 -0.0209973 -0.0285501 151 143 58 0.221896 -0.224619 0.948846 
-0.072227 0.00454256 -0.0318331 147 137 58 0.00693219 0.661331 0.750063 
0.0483748 0.0130273 0.0406359 135 51 35 0.20859 -0.134368 0.968729 
-0.067457 0.00199326 -0.0295321 158 147 59 0.154567 0.305031 0.939715 
0.0037869 -0.00936154 0.0370239 48 83 175 0.185074 0.038901 0.981954 
0.0164371 0.00922146 0.0361849 107 54 53 -0.211128 0.574822 0.790573 
0.00401267 -0.0292824 -0.00284608 171 156 60 -0.0573064 -0.218252 0.974208 
-0.0299161 -0.0387725 -0.00780108 116 111 54 0.130234 -0.135103 0.982235 
0.00900343 0.0516794 -0.0341471 88 82 37 -0.287419 -0.162099 0.943988 
-0.0256499 0.0592431 -0.0374731 151 137 56 0.522812 0.292206 0.800802 
0.00492423 -0.0381142 -0.00407907 85 88 51 -0.217791 -0.0105952 0.975938 
-0.0172294 -0.0216367 -0.00624605 114 63 41 -0.0559815 0.25005 0.966613 
-0.0311811 -0.0112518 0.0308339 72 77 135 -0.155849 -0.0380965 0.987046 
0.015543 0.0151598 0.0353449 105 57 65 0.0751631 -0.210703 0.974656 
0.0155354 -0.0496413 -0.0109281 49 47 42 -0.236712 0.157367 0.958751 
0.00972353 0.00370476 0.0359049 51 92 197 0.167989 -0.109131 0.97973 
0.0805921 0.00697066 0.0433929 134 52 38 0.0672033 0.026668 0.997383 
-0.0305994 0.0564315 -0.0374731 113 101 52 0.156288 0.474707 0.866157 
-0.0217137 -0.0453572 -0.00904908 103 95 45 0.0807911 -0.0247759 0.996423 
0.0604119 0.00450466 0.0422929 137 53 38 0.0957343 0.0957343 0.990793 
0.00844693 0.0491231 -0.0348101 73 73 37 -0.25048 -0.606508 0.754591 
-0.0064613 -0.000282742 0.0330959 49 88 184 0.247858 -0.0329664 0.968235 
0.0228004 0.064951 -0.0469241 41 40 26 -0.59083 0.506666 0.627862 
0.05594 -0.0221546 -0.0315041 141 128 54 -0.0278887 -0.246149 0.968831 
-0.000242524 -0.00624444 0.0353449 53 94 196 0.207966 0.232432 0.950119 
-0.00550111 0.0655386 -0.0328232 167 149 56 -0.122342 0.0803965 0.989226 
0.0241097 -0.0213049 -0.00811311 150 136 57 -0.0601628 0.161614 0.985018 
0.0139838 0.0640135 -0.0408251 79 77 37 -0.488964 0.630108 0.603223 
0.0789992 0.00722466 0.0433929 137 53 37 -0.000977516 0.000977516 0.999999 
-0.0343378 -0.0107458 0.0311169 118 65 68 -0.0883716 -0.168269 0.981772 
-0.00733781 -0.000140442 0.0328139 50 88 183 0.205555 -0.0199682 0.978442 
0.0138012 -0.0431234 -0.00749006 132 136 61 -0.164671 -0.316888 0.934059 
0.00580233 0.00675696 0.0381389 49 91 197 0.167647 -0.320053 0.932449 
-0.0161174 -0.0444653 -0.00811311 150 143 60 0.0491955 0.0754332 0.995937 
0.00692403 0.00821576 0.0384169 49 91 196 0.00359436 0.255199 0.966882 
-0.0206509 0.0491504 -0.0328232 158 142 56 0.274189 0.143113 0.950967 
-0.0105436 -0.0296295 -0.0056261 155 146 60 0.30681 -0.194733 0.931637 
-0.0159749 0.041115 -0.0305171 155 141 55 0.148456 0.2715 0.95092 
0.0658753 0.00771246 0.0425679 141 55 38 0.000977516 -0.000977516 0.999999 
0.0233561 -0.000966144 0.0375819 144 58 42 0.164779 0.0479144 0.985166 
-0.0127675 0.0495126 -0.0301891 141 127 51 0.166955 0.0987104 0.981011 
0.058301 0.0196778 0.0398049 127 50 37 0.0261126 0.146458 0.988872 
0.0128836 -0.0220032 0.00083194 135 119 52 -0.329303 -0.775871 0.53813 
0.0514894 -0.0104263 0.0422929 144 61 44 0.0116539 -0.0773394 0.996937 
0.0196344 -0.0275501 -0.00811311 148 140 54 -0.158993 0.103164 0.981875 
-0.0145871 -0.00974074 0.0330959 50 87 178 0.175091 0.296414 0.938873 
0.0130319 -0.0141259 0.0375819 57 90 147 0.0118135 0.093434 0.995555 
-0.0195123 0.011731 0.0328139 50 88 185 0.269504 0.466627 0.842393 
-0.0235149 0.0496697 -0.0338161 153 137 55 0.317372 0.0501114 0.946976 
0.0279798 -0.0410485 -0.00780108 103 94 46 -0.0743123 -0.193699 0.978242 
0.0221156 0.0743284 -0.0486341 19 21 19 -0.305753 0.0550099 0.95052 
-0.0913473 -0.00673344 -0.0328232 151 142 62 0.24101 0.272017 0.931623 
-0.0851626 -0.00767644 -0.0298601 169 158 63 0.287809 0.180397 0.940544 
-0.0218538 -0.0119002 0.0319669 45 84 174 0.099671 0.22079 0.970215 
-0.0397229 -0.0293829 -0.00780108 160 147 60 -0.146419 -0.316102 0.937358 
-0.0714431 -0.0285919 -0.0295321 151 143 56 -0.211618 -0.21701 0.952956 
-0.019941 -0.0237878 -0.0053161 106 90 45 -0.219262 -0.0600215 0.973818 
-0.00318559 0.00248486 0.0345029 49 92 199 0.140491 -0.00331869 0.990076 
-0.00752963 0.0558913 -0.0311751 158 146 58 0.00320153 -0.0928443 0.995675 
-0.0267024 0.0538306 -0.0348101 128 121 53 0.441073 0.0994165 0.891948 
-0.0071765 0.0575977 -0.0308461 169 151 58 -0.0407822 0.0324167 0.998642 
0.0383133 0.00235856 0.0398049 141 53 37 0.148567 0.084386 0.985295 
0.00952493 -0.0223193 0.00144193 65 60 41 -0.203943 -0.565826 0.798904 
0.0231879 -0.0220242 -0.00780108 143 131 53 -0.0254158 0.111609 0.993427 
-0.0352538 -0.0379602 -0.00873705 147 144 62 0.0419277 0.00511314 0.999108 
-0.00192582 -0.00514774 0.0345029 52 94 195 0.188954 0.178529 0.965621 
-0.0342826 0.0570651 -0.0381411 72 65 61 0.0233245 0.544695 0.83831 
-0.00978095 -0.0129784 0.0345029 50 88 185 0.0945847 0.113268 0.989052 
0.0141838 -0.0326973 -0.0053161 126 122 56 -0.373344 -0.0141126 0.927586 
-0.0204227 -0.0263196 -0.0056261 109 100 45 -0.25772 -0.324698 0.910028 
0.00766843 0.0739608 -0.0398171 87 82 37 -0.390243 0.108937 0.914244 
0.0150918 -0.0206657 -0.00192406 126 121 54 -0.740189 -0.584701 0.332032 
0.00787833 0.0757656 -0.0401532 100 92 39 -0.328598 0.117646 0.937114 
0.0496491 0.021018 0.0406359 70 36 29 -0.105035 0.265829 0.958281 
0.0487019 -0.0272713 -0.0324931 94 88 44 -0.0330451 -0.405794 0.913367 
0.0582262 -0.00497274 0.0431179 129 57 43 0.0376893 0.00509315 0.999277 
-0.000376005 -0.0337969 -0.00377109 109 106 48 0.183748 -0.0815308 0.979586 
0.0711321 0.0150482 0.0425679 136 51 35 0.148525 0.205353 0.967352 
-0.0161694 0.0465444 -0.0311751 130 121 55 0.372531 0.0707674 0.925318 
-0.00713946 0.000652557 0.0330959 50 91 190 0.260692 -0.174245 0.949567 
-0.0603866 -0.00269264 -0.0272441 177 157 63 0.132888 0.441532 0.88735 
-0.0322555 0.0494123 -0.0361401 81 78 62 -0.192512 0.289461 0.937631 
5.52288e-05 0.0721556 -0.0364731 125 116 46 -0.472079 0.436142 0.766108 
-0.0176018 0.0734466 -0.0394811 82 86 41 0.140268 0.356919 0.923544 
0.0257979 0.00440846 0.0373029 141 55 41 0.215125 0.291051 0.932207 
-0.0264138 0.0612158 -0.0381411 145 133 53 0.399945 0.0438478 0.915489 
-0.0301655 -0.0247274 -0.00407907 98 78 42 -0.136407 -0.348596 0.927294 
0.0451872 -0.00860114 0.0420169 142 61 41 0.112795 -0.0895386 0.989576 
-0.0255405 -0.0465198 -0.00967409 64 60 39 0.237821 -0.084307 0.967643 
-0.0118598 -0.0189852 -0.00377109 89 56 49 0.424718 -0.537095 0.728796 
-0.0326898 0.0540419 -0.0371391 80 73 61 -0.0738673 -0.0584323 0.995555 
0.0330573 0.0115511 0.0350649 134 53 37 0.107763 0.651004 0.751386 
0.0153165 0.0713485 -0.0442031 68 69 34 -0.327359 0.0556381 0.94326 
0.0311096 -0.000580344 0.0389728 142 56 41 0.129542 0.0781919 0.988486 
-0.00556166 0.0448128 -0.0305171 117 110 52 -0.347998 -0.498744 0.793821 
0.0447118 -0.000329444 0.0411889 145 56 40 0.192642 0.1874 0.963208 
-0.0182515 -0.0275573 -0.00655707 139 130 55 -0.0874687 -0.156964 0.983723 
0.0167806 -0.0171873 0.0381389 122 59 45 0.000977516 0.000977516 0.999999 
-0.101063 -0.00518894 -0.0331541 155 148 60 -0.14275 0.273493 0.951222 
-0.0677025 0.00740676 -0.0331541 141 133 56 0.00967365 0.617732 0.78633 
0.0109587 -0.020809 0.00296191 65 61 38 -0.180134 -0.489786 0.853031 
-0.100355 -0.00352684 -0.0344781 144 144 62 -0.15578 0.757726 0.633707 
-0.0573617 -0.0209925 -0.0282231 164 153 63 -0.108085 -0.368035 0.923508 
0.0693946 0.00387346 0.0428429 139 56 39 0.0807167 0.0920852 0.992474 
-0.0261064 -0.0411463 -0.00842508 146 138 57 0.0530966 -0.332825 0.941493 
-0.0188984 -0.0164943 0.0333779 52 93 196 0.205285 0.189392 0.960203 
-0.0228438 -0.0133961 0.0322488 47 85 179 0.0695235 0.149652 0.986291 
-0.00582488 0.00620386 0.0347839 53 90 185 0.041039 -0.174709 0.983764 
-0.000824876 -0.050633 -0.0131311 65 65 62 -0.0978442 -0.787135 0.608971 
0.0199339 0.012836 0.0345029 134 52 40 0.0706287 0.0467236 0.996408 
-0.0244098 -0.0414168 -0.00842508 155 146 58 0.138889 -0.295307 0.945253 
0.043702 -0.0358346 -0.0121851 42 43 28 -0.449871 -0.379428 0.808487 
0.0110572 0.0754241 -0.0418361 79 73 35 -0.651449 -0.0889002 0.753466 
0.0458767 0.0134462 0.0400829 136 51 35 0.268196 -0.03337 0.962786 
-0.0251901 -0.0448177 -0.00936206 110 102 49 0.244021 -0.0688265 0.967324 
0.00600523 -0.0409182 -0.00500705 131 130 57 -0.472171 -0.381927 0.794472 
0.0645699 0.00465096 0.0425679 136 53 34 -0.00102047 0.04388 0.999036 
-0.0170836 -0.0159532 0.0336589 53 93 187 0.171283 0.131275 0.976437 
0.0698933 -0.0225979 -0.0334851 135 125 53 -0.360867 -0.576407 0.733164 
-0.0256487 0.0693728 -0.0401532 143 131 52 0.287494 0.435085 0.853258 
0.0797919 -0.0241912 -0.0381411 40 42 30 -0.281354 -0.117561 0.952376 
-0.0630153 -0.0191769 -0.0272441 178 168 62 -0.171617 -0.208299 0.962891 
-0.0688327 0.00849216 -0.0344781 138 128 53 -0.0125321 0.666987 0.744964 
-0.00766668 -0.00918804 0.0339409 49 87 181 0.187143 0.146404 0.971362 
-0.0258641 -0.00960934 0.0311169 51 91 182 0.190407 0.193033 0.96254 
0.0240998 -0.00849494 0.0389728 126 53 40 0.152617 0.0547557 0.986767 
-0.0136516 -0.00906264 0.0330959 51 89 181 0.178394 0.212751 0.960683 
0.0560439 -0.00298594 0.0428429 116 49 37 0.0714635 0.0986877 0.992549 
-0.00849327 0.0175002 0.0302669 110 51 50 0.237611 -0.16593 0.957083 
-0.0682751 0.0130048 -0.0438641 109 105 48 -0.00415902 0.69733 0.716738 
-0.0736821 0.0202282 -0.0445421 63 66 89 -0.268623 0.621488 0.735931 
-0.0751858 -0.00301364 -0.0288771 164 153 59 0.246405 0.370345 0.895616 
-0.0751091 0.00590046 -0.0331541 140 131 56 0.16733 0.390436 0.905296 
0.00578443 0.0470068 -0.0371391 85 84 41 -0.431157 -0.687521 0.58431 
0.0217004 -0.0313519 -0.00780108 103 104 48 -0.0673383 0.030997 0.997249 
0.0112109 -0.0498098 -0.0106141 51 50 43 0.0184271 0.28132 0.959437 
0.0345721 -0.0386036 -0.0071791 132 126 61 0.0383311 0.0865187 0.995513 
0.0712081 0.0101212 0.0428429 146 54 38 0.0928697 -0.0882835 0.991757 
0.0352358 -0.0213473 -0.00904908 101 99 45 -0.12466 0.0780581 0.989124 
0.00342556 -0.00435644 0.0356249 51 93 201 0.0926406 0.242388 0.965746 
-0.0297536 -0.00650404 0.0302669 54 89 189 -0.013244 0.0315819 0.999413 
0.0648624 0.000496854 0.0433929 145 66 45 0.0502921 0.236741 0.97027 
0.0148058 0.0161118 0.0350649 100 59 74 0.0910506 -0.262892 0.960519 
-0.0767482 -0.0196823 -0.0282231 174 159 62 0.0597905 -0.155924 0.985958 
-0.0205567 0.00940456 0.0333779 48 90 188 0.286941 0.144144 0.947041 
-0.028472 0.00573666 0.0308339 49 91 191 0.286958 0.500217 0.816969 
-0.0283923 -0.00838134 0.0302669 53 91 190 0.0257635 0.128817 0.991334 
0.0472 0.00500566 0.0411889 141 54 38 0.152309 0.0696606 0.985875 
0.0199202 0.0754205 -0.0469241 24 24 19 -0.751159 -0.0799105 0.655266 
-0.00872864 0.0606029 -0.0318331 174 159 59 0.0207439 0.101536 0.994616 
0.0560428 0.00274826 0.0422929 143 53 38 -0.0112945 0.0420977 0.99905 
-0.074932 0.00766546 -0.0334851 130 124 53 0.182052 0.342935 0.921549 
0.0729263 -0.013262 -0.0288771 144 133 53 -0.0481699 -0.488581 0.871188 
0.0451018 -0.00367544 0.0417409 122 51 37 0.189186 0.158299 0.969097 
-0.0922456 -0.0137385 -0.0321631 153 146 64 0.0900165 -0.0831798 0.992461 
-0.100766 -0.0159677 -0.0324931 163 153 64 -0.013271 0.0316463 0.999411 
-0.0221778 -0.0304042 -0.00655707 100 99 46 -0.0773562 -0.259968 0.962514 
-0.0925245 -0.0253497 -0.0328232 144 133 59 0.0119079 -0.100676 0.994848 
-0.0035589 0.0680024 -0.0338161 164 146 55 -0.182878 0.203928 0.961753 
-0.0550903 -0.0267395 -0.0295321 148 133 52 0.388969 -0.0826729 0.917534 
0.0763224 0.0109178 0.0433929 143 54 38 0.0728605 -0.168415 0.98302 
-0.0150244 0.00685926 0.0339409 49 91 194 -0.03088 -0.270509 0.962222 
-0.0212271 -0.0209818 -0.0053161 111 56 45 -0.369815 0.0486945 0.927828 
-0.0181453 0.0613895 -0.0341471 170 152 59 0.339256 0.262887 0.903214 
-0.09434 -0.0205728 -0.0324931 151 140 60 -0.000977516 0.000977516 0.999999 
-0.0124083 0.0713556 -0.0354741 153 141 56 0.340492 0.650031 0.679356 
-0.0326384 -0.0296237 -0.0071791 167 155 62 -0.025474 -0.462553 0.886225 
0.0495177 0.00381016 0.0414649 140 53 37 0.152309 0.0696606 0.985875 
0.0768303 0.014103 0.0433929 126 46 32 0.103203 0.156626 0.982251 
-0.0294194 -0.0406044 -0.00811311 110 109 56 0.0109249 -0.270694 0.962603 
0.0313917 0.0118257 0.0347839 137 53 36 -0.00413308 0.637872 0.770131 
0.0273261 0.016875 0.0274169 133 52 37 -0.360184 0.798807 0.481846 
0.0403469 -0.0267939 -0.0295321 31 28 20 -0.493478 -0.358455 0.792458 
-0.0115224 0.0155166 0.0294139 62 68 140 0.10307 -0.124395 0.986865 
0.0703422 0.0200647 0.0428429 122 49 38 0.107982 -0.184934 0.976801 
-0.00972423 -0.0489332 -0.00749006 83 83 74 -0.203055 0.195092 0.959535 
0.0131995 0.0554943 -0.0341471 84 79 37 -0.210198 -0.074983 0.974779 
-0.0219908 0.0630561 -0.0361401 159 146 61 0.371327 0.247058 0.89503 
0.00264892 0.00154316 0.0353449 52 91 190 0.0948253 0.054664 0.993992 
-0.0117236 0.0147253 0.0291289 49 80 180 0.100459 -0.0118823 0.99487 
0.0136841 0.0715451 -0.0435251 75 73 35 -0.41101 0.0606408 0.909612 
0.00763753 -0.00503324 0.0364649 51 94 194 0.217455 0.415679 0.883133 
0.018769 -0.0430929 -0.00873705 111 110 52 -0.378753 -0.237274 0.894565 
0.068801 -0.000960746 0.0439418 128 51 37 0.0701819 0.165344 0.983736 
-0.0198167 -0.00808584 0.0311169 51 92 190 0.198436 0.20909 0.957551 
0.0691132 0.0120784 0.0431179 131 50 36 0.0542263 -0.0852127 0.994886 
-0.0108224 -0.00123974 0.0328139 48 87 178 0.0224375 0.0758601 0.996866 
0.0324554 -0.00901294 0.0400829 141 59 43 0.128493 -0.0032947 0.991705 
0.00660413 0.00662916 0.0381389 49 91 198 0.0766589 -0.46971 0.879486 
-0.0117577 0.0502443 -0.0301891 135 124 53 0.0864582 0.13857 0.986571 
-0.000942511 0.0685405 -0.0344781 157 136 52 -0.344957 0.270932 0.898666 
-0.0243409 -0.0449532 -0.00936206 113 99 47 0.170886 -0.0360373 0.984631 
0.0936464 0.0122504 0.0431179 44 24 24 -0.524935 0.372168 0.765463 
-0.0269148 -0.0437008 -0.00998708 130 122 53 0.207734 -0.285808 0.9355 
-0.0657385 -0.0151711 -0.0265921 196 177 67 0.0863229 -0.102437 0.990987 
0.0141429 -0.0283432 -0.00469711 117 108 59 -0.498053 -0.0341132 0.866475 
-0.0148781 0.014375 0.0299829 53 80 177 -0.529877 -0.00134829 0.848073 
0.0735336 -0.0258814 -0.0358071 118 112 52 -0.0533501 0.176648 0.982827 
0.020446 -0.0224604 -0.00811311 150 144 59 -0.204668 0.0295763 0.978384 
-0.0320918 0.0521468 -0.0371391 87 80 60 0.0279544 0.246728 0.968681 
0.00102507 -0.0155109 0.0364649 55 93 172 0.131784 0.096167 0.986603 
0.0205325 0.0102398 0.0353449 136 52 37 -0.0844155 0.146241 0.985641 
-0.0897287 -0.0204031 -0.0321631 162 151 64 0.28243 -0.0838262 0.955618 
0.0451551 -0.0267098 -0.0328232 64 59 34 -0.0681432 -0.479784 0.874736 
0.0204834 -0.0389837 -0.00780108 123 125 56 -0.181411 -0.213191 0.960021 
-0.00523972 0.0600466 -0.0318331 166 152 58 0.0123217 0.146741 0.989098 
0.0125139 0.0689506 -0.0428491 88 83 37 -0.547779 0.127766 0.826809 
0.0188069 0.0727697 -0.0459021 41 42 27 -0.625522 0.00690421 0.780176 
-0.0196492 -0.0155511 0.0330959 50 93 192 0.22461 0.124498 0.966463 
0.0655592 -0.0263956 -0.0344781 122 115 49 -0.35668 -0.52453 0.773077 
0.0389405 -0.0254213 -0.00904908 63 65 36 -0.332743 0.320698 0.886812 
0.00463713 -0.0497389 -0.0128151 62 61 46 0.056677 -0.365105 0.929239 
-0.0240757 -0.0274716 -0.0056261 81 85 46 -0.213974 -0.255388 0.942864 
0.0222188 0.0688097 -0.0482911 40 41 26 -0.377545 0.0738968 0.923038 
-0.0137065 0.0736352 -0.0384761 91 94 43 0.38758 0.353336 0.851431 
0.0570951 0.00421586 0.0422929 138 53 36 0.0279016 0.121651 0.992181 
-0.0772255 0.0170901 -0.0398171 65 63 58 -0.0911942 0.580458 0.809167 
-0.00942828 -0.0384918 -0.00593611 104 103 51 0.15134 0.15134 0.976828 
-0.0753383 -0.0306469 -0.0295321 148 138 54 0.095748 -0.128846 0.987031 
-0.000211516 -0.0373057 -0.00438806 62 69 39 0.134386 0.0327494 0.990388 
-0.0136771 -0.0230466 -0.00500705 101 93 46 0.311733 -0.0111777 0.950104 
-0.0100804 0.0383716 -0.0301891 109 109 48 -0.189889 0.355507 0.915181 
0.036252 -0.0112594 0.0403589 143 62 44 0.129219 -0.18191 0.974788 
0.0633481 -0.0161874 -0.0301891 156 142 55 0.104547 -0.143001 0.984185 
-0.100005 -0.00270834 -0.0364731 143 139 62 -0.107104 0.866829 0.486966 
-0.0125875 -0.00757794 0.0330959 52 92 196 0.170415 0.106663 0.979582 
0.01811 0.0538895 -0.0351421 60 61 32 -0.041618 -0.0522893 0.997764 
0.0501488 0.0135532 0.0409129 135 51 36 0.227355 -0.0577605 0.972097 
-0.0948322 -0.0124385 -0.0324931 164 151 65 0.100216 0.031937 0.994453 
0.0641491 0.00143436 0.0431179 148 62 43 0.0205564 0.247886 0.968571 
0.00941633 -0.0205555 0.00356892 45 43 32 -0.268921 -0.361037 0.892936 
0.00346561 -0.0109571 0.0367439 48 87 164 0.176279 -0.150915 0.972703 
0.0326948 0.00492796 0.0384169 137 53 37 0.152827 0.223363 0.96268 
0.0678861 -0.0160197 -0.0298601 149 139 54 -0.0152084 -0.202389 0.979187 
-0.0239938 -0.0353467 -0.0071791 163 155 63 0.0368956 0.0453289 0.998291 
0.010844 -0.00802084 0.0381389 48 83 166 0.0672562 0.0650511 0.995613 
-0.0196605 0.00513086 0.0330959 49 89 192 0.163453 -0.432499 0.886695 
-0.00644445 0.0565875 -0.0308461 158 146 56 0.00106266 -0.0924518 0.995717 
-0.0141865 0.0533779 -0.0311751 172 153 57 0.204484 0.142753 0.968405 
-0.0842224 -0.00870844 -0.0292051 175 160 62 0.248968 0.0404727 0.967666 
0.0121851 0.0547593 -0.0341471 85 79 38 -0.240347 -0.143157 0.960073 
-0.0196213 0.0100824 0.0333779 49 89 185 0.230481 0.241522 0.942627 
-0.0841881 -0.00782704 -0.0295321 173 159 63 0.222652 0.167318 0.960433 
0.0380314 -0.0107249 0.0406359 141 62 44 0.0999898 -0.229091 0.968256 
-0.0219945 -0.0208537 -0.00500705 102 55 46 -0.382679 0.0300397 0.923393 
-0.016425 0.0510755 -0.0315041 140 132 52 0.32752 0.126387 0.936353 
-0.00467664 -0.0322727 -0.00469711 147 136 59 0.110122 -0.0344825 0.99332 
-0.00829664 0.00331496 0.0333779 50 92 197 0.0390212 -0.108145 0.993369 
0.0394153 0.0137974 0.0361849 135 53 37 0.528756 0.576057 0.623358 
0.019581 0.0585482 -0.0401532 58 57 32 -0.419153 0.710737 0.564945 
0.0636021 -0.00257394 0.0436679 112 54 38 0.0348563 0.0496439 0.998159 
0.00345451 0.00963046 0.0367439 49 91 192 0.173096 0.558424 0.811295 
0.0185103 -0.00595334 0.0378599 125 55 44 0.160726 0.306341 0.938255 
-0.00456251 0.0663127 -0.0331541 166 149 56 -0.128587 0.145731 0.980932 
-0.0199964 0.0626596 -0.0351421 162 149 56 0.32408 0.254323 0.911203 
-0.00911474 0.0117615 0.0314009 47 90 189 0.198188 0.769707 0.606855 
0.0564251 -0.000595344 0.0428429 139 55 41 0.0658364 0.125898 0.989856 
-0.103162 -0.0281718 -0.0338161 150 138 59 0.180686 -0.450982 0.874053 
-0.0885628 -0.00271584 -0.0344781 150 148 62 0.30143 0.697963 0.649606 
-0.000318146 -0.0518307 -0.0178901 69 68 77 -0.166971 -0.122446 0.978329 
-0.0973755 -0.0227739 -0.0324931 150 142 61 -0.0152821 -0.0295453 0.999447 
0.0283898 0.00481166 0.0375819 142 53 38 0.188422 0.248066 0.950242 
0.00390298 -0.05252 -0.0182091 72 73 80 0.212163 -0.217569 0.952707 
-3.95038e-05 0.0127331 0.0339409 50 92 193 0.370016 0.508974 0.777196 
-0.0767637 -0.0277554 -0.0298601 147 136 53 0.252045 -0.254861 0.933552 
0.00731773 0.0703135 -0.0388111 112 105 43 -0.425861 0.128749 0.895581 
-0.0133306 -0.0140665 0.0342219 50 91 191 0.152617 0.0547557 0.986767 
-0.015281 -0.00797684 0.0325319 49 92 192 0.243432 0.143428 0.959255 
0.0109372 -0.023414 0.00083194 112 100 52 -0.201678 -0.470582 0.858999 
0.00671823 0.0722123 -0.0388111 104 99 42 -0.346478 0.247067 0.904937 
-0.0380263 -0.0296535 -0.00780108 164 151 60 0.103323 -0.238535 0.965622 
0.0259972 0.0665694 -0.0503501 22 22 19 -0.705184 0.210154 0.677164 
0.00118176 0.0554449 -0.0318331 145 131 52 -0.201924 -0.165447 0.965326 
0.0660953 0.0142167 0.0425679 134 51 36 0.0591202 0.468837 0.881304 
-0.0165628 0.00709996 0.0342219 49 90 195 0.022133 -0.187548 0.982006 
0.0167498 0.051437 -0.0354741 58 58 31 0.0954173 0.199509 0.975239 
0.0164923 0.00836786 0.0370239 110 53 52 -0.354908 0.373506 0.857049 
-0.0159142 0.0420167 -0.0308461 163 145 57 0.246918 0.184851 0.951242 
0.0148304 0.00947766 0.0361849 79 64 95 -0.067236 0.607985 0.791096 
0.0253185 -0.0111526 0.0389728 144 60 44 0.159292 -0.0625368 0.985249 
0.0156533 -0.00878774 0.0381389 65 64 103 0.0376893 0.00509315 0.999277 
-0.0782108 0.020957 -0.0448821 63 65 87 -0.0858441 0.653288 0.752227 
-0.0662425 -0.00532014 -0.0275701 184 166 64 0.152871 0.25124 0.955777 
-0.0866591 -0.0101265 -0.0305171 168 159 66 0.38945 -0.176762 0.903927 
-0.0961308 -0.00865694 -0.0328232 165 156 65 0.029088 0.180345 0.983173 
0.0364645 0.00760586 0.0386949 143 54 38 0.171578 0.158869 0.972277 
0.0591502 -0.00430324 0.0431179 124 54 40 0.120348 -0.0165616 0.992594 
-0.0769888 0.0189107 -0.0428491 63 64 79 -0.0836925 0.849692 0.520596 
-0.00752538 -0.00176754 0.0330959 48 86 183 0.189737 0.141348 0.971607 
0.0651331 0.0193147 0.0417409 131 52 37 0.248941 -0.123819 0.960571 
-0.00953632 -0.0105425 0.0339409 49 85 173 0.0811586 0.228493 0.970157 
0.0633669 0.0121887 0.0428429 128 48 34 0.0976073 -0.0318046 0.994717 
-0.0250683 -0.0316897 -0.00686809 107 110 49 -0.018733 -0.117908 0.992848 
-0.0252368 -0.0113654 0.0314009 46 85 168 0.178394 0.212751 0.960683 
0.0251902 -0.0371166 -0.00749006 157 147 58 0.214727 -0.154864 0.964318 
0.0152997 -0.0311413 -0.0053161 96 97 53 -0.452344 -0.207511 0.867366 
-0.028713 0.00992786 0.0305499 48 87 182 0.60702 -0.135722 0.783011 
0.0220806 -0.0340292 -0.00811311 137 129 61 0.00109585 0.128215 0.991746 
-0.0213486 0.00540376 0.0328139 48 90 192 0.136107 -0.114426 0.984064 
0.0018325 0.0132452 0.0345029 52 88 192 0.152965 0.536119 0.830168 
-0.0362927 -0.024624 -0.00438806 119 82 48 -0.00720045 -0.0483458 0.998805 
-0.0239349 -0.00743014 0.0308339 49 90 180 0.0381696 0.158462 0.986627 
0.071874 -0.017543 -0.0315041 146 137 55 -0.312702 -0.440272 0.841652 
0.0136973 -0.0265278 -0.00407907 142 129 63 -0.582553 -0.263649 0.768844 
0.0157781 0.0685533 -0.0442031 71 71 34 -0.356922 0.170702 0.918405 
-0.0143106 0.0117804 0.0305499 48 89 189 -0.308848 0.465623 0.829342 
-0.0119443 -0.00354444 0.0330959 47 87 180 0.142971 0.0191379 0.989542 
0.00671553 -0.0410546 -0.0056261 139 137 60 -0.401233 -0.42681 0.81046 
0.0243955 0.0657586 -0.0486341 30 32 22 -0.6502 0.276375 0.707712 
-0.0163419 -0.00283754 0.0316839 47 87 180 0.264782 -0.05898 0.962503 
0.0257316 0.0566109 -0.0394811 34 34 24 -0.159775 0.893879 0.418871 
-0.00749143 -0.0327088 -0.0053161 130 120 52 0.257549 0.079929 0.962954 
0.00402716 -0.0451878 -0.0109281 150 146 61 -0.0152264 -0.615975 0.787618 
0.0657932 -0.025531 -0.0338161 126 117 50 -0.284985 -0.530607 0.798273 
-0.0633017 -0.0128765 -0.0256161 194 178 69 0.120254 -0.278831 0.952781 
-0.0140195 -0.038663 -0.00686809 144 137 59 0.157335 0.0876754 0.983646 
0.0205669 -0.0136818 0.0378599 141 61 44 0.0792627 -0.104535 0.991358 
-0.0582795 -0.0307867 -0.0321631 147 136 55 0.252882 -0.33474 0.907744 
-0.0268611 0.0466565 -0.0344781 115 103 48 0.268223 0.323919 0.907267 
-0.0106785 -0.0304753 -0.0056261 156 142 60 0.211955 -0.101588 0.971985 
-0.00591759 -0.00946574 0.0345029 48 87 183 0.256676 0.135578 0.956941 
-0.0304483 -0.031721 -0.00749006 173 164 64 0.106126 -0.127589 0.986133 
0.0166528 -0.0179889 0.0381389 121 56 42 0.033551 -0.00711687 0.999412 
0.00661203 -0.0375381 -0.00469711 112 110 54 -0.240219 -0.163243 0.956894 
-0.0726739 -0.0140652 -0.0265921 195 177 67 0.15428 -0.0671295 0.985744 
0.0537199 -0.014651 -0.0305171 112 93 44 0.132112 -0.28691 0.948804 
0.00964613 -0.0478433 -0.0112421 83 78 45 0.234312 -0.35074 0.906686 
-0.00208191 0.0650214 -0.0331541 160 143 54 -0.0968803 0.222699 0.970062 
-0.000272355 -0.0286065 -0.00315406 143 134 59 0.194089 -0.0793446 0.97777 
-0.0315681 -0.0136788 0.0308339 61 81 159 -0.0271799 -0.00503332 0.999618 
-0.00812101 0.0659564 -0.0328232 168 151 56 -0.025021 0.092469 0.995401 
0.00869812 -0.00272604 0.0359049 51 91 201 0.171578 0.158869 0.972277 
-0.082131 -0.0179589 -0.0292051 158 146 61 0.366362 -0.0404171 0.929594 
0.000274698 0.0502457 -0.0321631 114 105 45 -0.30919 -0.285745 0.907056 
0.0960777 -0.00367124 0.0436679 45 25 23 -0.132112 -0.28691 0.948804 
0.0521087 0.0223196 0.0395279 34 24 23 -0.118663 0.406246 0.906026 
0.0718435 0.0141055 0.0428429 133 49 33 0.10605 0.278873 0.954454 
-0.0807638 -0.0298075 -0.0301891 131 124 53 0.0380716 -0.0174924 0.999122 
-0.0246156 -0.00649194 0.0308339 49 88 185 0.055892 0.119769 0.991227 
0.0426609 0.00904766 0.0398049 141 53 39 0.165518 0.259716 0.951394 
0.0204769 -0.0425175 -0.00936206 105 106 50 -0.0692029 -0.322512 0.944032 
-0.0694256 -0.0271296 -0.0295321 163 153 61 -0.125184 -0.167325 0.977922 
0.0562523 -0.00710844 0.0431179 141 61 44 0.0277391 -0.114285 0.993061 
0.0352111 -0.0291477 -0.0071791 118 119 55 0.0876754 0.157335 0.983646 
-0.0252581 -0.0412815 -0.00842508 155 144 61 0.110999 -0.314274 0.942821 
-0.102869 0.00210886 -0.0579801 129 129 57 -0.0841235 0.842661 0.531832 
-0.0396215 -0.0232349 -0.00469711 101 64 48 0.117013 0.429988 0.89522 
0.00278044 0.0463941 -0.0341471 88 84 40 -0.518135 -0.474819 0.711395 
-0.0209215 -0.0463391 -0.00873705 71 63 40 0.173029 -0.123236 0.977177 
-0.0689448 -0.00489204 -0.0278961 187 167 63 0.00358605 0.254609 0.967037 
-0.0115618 0.0731396 -0.0368061 102 103 45 0.541082 0.454509 0.707568 
-0.0339457 -0.0267217 -0.00407907 141 133 56 0.0543125 -0.380188 0.923313 
0.0267133 -0.0330134 -0.00749006 169 159 65 0.102396 0.0319299 0.994231 
0.0429837 -0.0263306 -0.0301891 42 36 24 -0.591528 -0.393803 0.703572 
-0.0982484 -0.0226347 -0.0324931 156 147 63 0.0318367 -0.0215668 0.99926 
-0.0599331 -0.0134191 -0.0259411 187 172 68 0.00940362 -0.503765 0.863789 
0.0446436 -0.00687854 0.0420169 137 57 42 0.142656 -0.0766333 0.986801 
0.0313826 -0.00473574 0.0395279 129 51 36 0.151612 0.129425 0.97993 
-0.0210912 0.00701776 0.0328139 49 90 193 0.351626 -0.107253 0.929976 
-0.0909179 -0.0265014 -0.0328232 143 132 58 0.143066 -0.242819 0.959464 
0.0187509 -0.0334901 -0.00780108 90 89 51 -0.246527 0.17917 0.95243 
-0.00580484 -0.0535784 -0.0175711 75 71 83 -0.0100626 -0.144231 0.989493 
0.0766848 -0.0165287 -0.0301891 103 103 49 0.192699 -0.70759 0.679841 
-0.015919 -0.0183785 -0.00655707 57 61 82 0.314795 0.201864 0.927445 
0.0026973 -0.0157752 0.0367439 56 92 163 0.181716 0.0890284 0.979313 
0.0240887 -0.00190934 0.0378599 141 60 43 0.207681 0.0932701 0.97374 
0.00398203 0.0146214 0.0322488 51 89 190 -0.0920647 0.408108 0.90828 
0.00507803 -0.0507455 -0.0140781 58 57 53 0.0767286 -0.765838 0.63844 
0.0121739 -0.0218818 0.00144193 118 105 49 -0.0737732 -0.672638 0.736285 
0.00202045 -0.0350444 -0.00377109 61 61 33 0.0565648 -0.198579 0.978451 
-0.00479364 0.0491338 -0.0301891 130 120 52 -0.260278 0.107478 0.959533 
0.0493062 0.00794516 0.0411889 143 55 40 0.139877 0.239228 0.960835 
0.010188 0.0586386 -0.0338161 99 92 41 -0.352023 0.271815 0.895654 
-0.0884349 -0.0241771 -0.0318331 165 153 65 0.280621 -0.0892296 0.955662 
-0.0952119 -0.0204338 -0.0324931 154 141 63 -0.000977516 0.000977516 0.999999 
0.0887403 0.017103 0.0433929 114 47 36 -0.206846 0.204177 0.956831 
0.00720933 -0.0219368 0.0023549 38 37 34 -0.178691 -0.618544 0.765162 
0.00416613 -0.00530054 0.0359049 51 94 201 0.101515 0.301909 0.947916 
-0.10123 -0.00694824 -0.0328232 153 144 63 -0.122554 0.0584137 0.990741 
0.0108674 0.0624223 -0.0374731 97 91 40 -0.552956 0.55972 0.617214 
0.0573736 0.0190054 0.0398049 135 52 38 -0.00102047 0.04388 0.999036 
-0.0123083 -0.000175242 0.0328139 48 90 190 0.117908 0.018733 0.992848 
0.0558364 -0.00459164 0.0431179 123 54 39 0.0513847 0.0732506 0.995989 
0.00214789 -0.049327 -0.0125001 81 78 50 -0.259476 0.045936 0.964656 
0.0705479 0.016789 0.0422929 136 53 38 0.151627 -0.0669981 0.986165 
0.0133017 0.0630762 -0.0391461 83 81 38 -0.312114 0.552202 0.773083 
0.081389 0.00684356 0.0433929 134 51 37 0.0945694 0.0786179 0.992409 
0.0352477 -0.0343669 -0.0071791 123 117 64 0.0436266 0.18276 0.982189 
-0.0843295 -0.000693239 -0.0334851 129 128 58 0.194706 0.156023 0.968373 
-0.00212394 0.00396706 0.0345029 54 91 187 0.136488 -0.0711606 0.988083 
0.023335 -0.0203145 -0.00842508 147 139 58 -0.0198956 0.200127 0.979568 
-0.0228758 0.0531313 -0.0334851 151 139 56 0.251302 0.0254944 0.967573 
-0.0362938 -0.0351469 -0.00780108 142 133 55 0.102726 -0.189363 0.976519 
0.0218203 0.0715749 -0.0479491 35 37 25 -0.336554 0.0113445 0.941596 
0.000796728 0.0483947 -0.0324931 96 91 43 -0.339928 -0.151233 0.928212 
0.028747 0.00890646 0.0361849 135 53 39 0.273948 0.157891 0.948696 
0.00757923 -0.0173692 0.0375819 69 68 81 0.0460945 -0.111301 0.992717 
-0.00234559 0.0613739 -0.0318331 140 132 51 -0.0681555 0.123604 0.989988 
0.0127766 -0.00420764 0.0367439 56 84 164 0.0926616 0.293646 0.951413 
-0.0278692 -0.0373476 -0.00749006 145 132 56 0.0403242 -0.153232 0.987367 
-0.0223198 -0.023395 -0.00469711 97 70 40 -0.312154 0.143127 0.939188 
0.000764498 0.0528283 -0.0318331 127 118 47 -0.341751 -0.109414 0.933399 
0.0555011 -0.00126514 0.0428429 137 55 39 0.0590166 0.0879681 0.994374 
-0.0073873 0.0649439 -0.0328232 170 153 57 -0.100321 0.155921 0.982662 
-0.0282532 -0.0461184 -0.0103011 96 88 45 0.343851 -0.157309 0.925754 
-0.0636322 -0.0137233 -0.0262661 195 176 69 0.17378 -0.315584 0.932849 
0.0935962 -0.00409864 0.0439418 68 35 29 -0.0652969 -0.225459 0.972062 
-0.0206853 0.00859816 0.0333779 49 90 192 0.293774 0.0185933 0.955694 
-0.0836244 -0.0204149 -0.0298601 173 160 65 0.328962 -0.132404 0.935015 
0.0477996 -0.00247394 0.0420169 134 53 38 0.129278 0.179482 0.97523 
0.040215 -0.0308087 -0.00686809 76 75 38 -0.209668 0.157576 0.964992 
0.0930765 -4.21464e-05 0.0474919 77 36 30 0.00105859 -0.0878629 0.996132 
0.00605793 0.00836026 0.0381389 50 90 192 0.11524 0.247312 0.962058 
-0.0190034 0.00173286 0.0314009 49 92 194 0.0484136 0.0548687 0.997319 
-0.014693 -0.032466 -0.00655707 83 83 40 0.132748 0.0611794 0.98926 
-0.0705508 -0.0242537 -0.0288771 167 153 59 -0.208392 -0.169073 0.963321 
0.0207532 -0.0259888 -0.00811311 137 136 57 0.00717296 -0.0420131 0.999091 
0.0536754 -0.0244812 -0.0321631 123 116 52 -0.0977886 -0.237487 0.966456 
-0.00336814 -0.0548467 -0.0175711 74 74 88 -0.0223968 0.0714566 0.997192 
-0.0322416 -0.016899 0.0302669 62 92 180 0.178829 -0.107298 0.978012 
-0.0422534 -0.0245312 -0.00407907 139 107 55 0.301575 0.172132 0.937775 
0.000522006 -0.000586443 0.0347839 48 87 185 0.16736 -0.14471 0.975218 
-0.0678584 0.00833446 -0.0341471 140 130 54 -0.0153569 0.677098 0.735733 
0.0452391 0.00944796 0.0400829 141 54 37 0.207357 0.282507 0.936586 
6.29582e-05 0.0494069 -0.0324931 106 96 44 -0.339928 -0.151233 0.928212 
-0.0768595 -0.0160871 -0.0275701 178 164 63 0.169516 -0.0805501 0.98223 
0.00850903 -0.0166949 0.0375819 58 76 104 -0.0160206 -0.0822393 0.996484 
0.0430539 0.00568906 0.0403589 141 54 38 0.193264 0.169917 0.966321 
-0.00578666 0.0556134 -0.0311751 160 150 56 0.0175964 -0.0445085 0.998854 
