ply
format ascii 1.0
comment VCGLIB generated
element vertex 673
property float x
property float y
property float z
property float nx
property float ny
property float nz
property uchar red
property uchar green
property uchar blue
element face 0
property list uchar int vertex_indices
end_header
-0.0117307 0.0688566 -0.0278961 -0.659882 -0.110734 0.743165 120 111 47
-0.00151724 0.0267365 0.0384169 0.0539981 -0.108054 0.992677 143 57 43
-0.020835 -0.0750486 -0.0278961 -0.159821 -0.129925 0.978559 139 128 55
-0.0200161 -0.0978309 -0.0324931 0.0343278 2.06165e-05 0.999411 162 152 63
0.0145796 0.0307697 0.0296979 0.858334 0.118278 0.499273 131 51 37
-0.0527886 0.00568893 -0.0178901 0.159933 -0.248662 0.955295 74 75 88
-0.031113 -0.0232386 -0.00686809 -0.176403 0.00383001 0.984311 104 100 47
-0.0421074 0.018119 -0.00842508 -0.235678 0.32544 0.915721 123 126 57
-0.0545732 -0.00508347 -0.0175711 0.0325665 0.0295075 0.999034 72 73 86
0.0596031 0.00347924 -0.0324931 0.114384 0.189298 0.975235 134 126 49
-0.033041 -0.0387366 -0.00842508 -0.0456722 -0.136672 0.989563 141 129 55
0.0682039 0.00153844 -0.0351421 0.373403 0.327076 0.868096 144 130 51
0.0130468 -0.00664047 0.0305499 0.370624 -0.251604 0.894055 51 89 191
-0.00526984 0.0346928 0.0400829 0.151539 -0.171012 0.973545 125 48 34
-0.0196291 0.0457263 -0.0308461 0.184299 0.430502 0.883573 118 103 44
0.00155626 0.093296 0.0472199 0.0859773 -0.0274387 0.995919 64 31 27
-0.00312554 0.0568874 0.0431179 0.0898318 -0.0925761 0.991645 115 49 35
-0.00482314 0.0623806 0.0433929 -0.00453385 -0.108355 0.994102 134 56 42
-0.0212551 0.0292152 -0.00873705 0.0496732 0.129777 0.990298 108 109 50
0.0615497 -0.0332181 -0.0401532 0.16716 -0.310416 0.935788 89 81 54
-0.02847 0.0148579 -0.0053161 0.104001 0.516524 0.849933 114 105 56
0.00922496 0.036666 0.0384169 0.435207 -0.218698 0.873365 137 52 38
0.0128293 -0.0157271 0.0308339 0.258113 0.509934 0.820576 48 89 190
-0.00402594 -0.0631703 -0.0269181 0.289426 -0.308946 0.905972 180 159 62
0.0712395 -0.0298775 -0.0435251 0.402603 -0.338232 0.850594 86 83 49
0.00840626 -0.024493 0.0316839 -0.191837 -0.328027 0.924985 49 91 190
0.0154901 0.0636108 0.0411889 0.550284 -0.108566 0.827889 135 52 39
-0.0404706 0.0298704 -0.00749006 -0.108565 -0.166674 0.980017 118 113 54
-0.0276288 -0.000981234 -0.00315406 -0.0654218 -0.0824103 0.994449 84 89 49
0.00784056 -0.0760088 -0.0341471 0.445594 -0.288395 0.847511 127 123 53
-0.0211881 0.0498897 -0.0311751 -0.0266619 0.0152232 0.999529 136 125 56
0.0578172 -0.0185438 -0.0334851 0.118036 -0.283131 0.95179 169 154 60
0.0702239 0.0168779 -0.0445421 0.0560333 0.343949 0.937315 66 64 32
-0.0259168 -0.0888186 -0.0321631 -0.177384 -0.213193 0.960772 150 140 61
0.044442 -0.0194402 -0.0321631 0.177342 -0.212068 0.961029 137 132 58
0.0515032 0.00390098 -0.0328232 -0.170676 0.194464 0.965947 103 97 44
-0.0161584 0.0687562 -0.0298601 -0.26678 0.0617327 0.961778 149 139 55
0.062299 0.00375521 -0.0331541 0.35777 0.17482 0.9173 135 123 47
-0.00360164 -0.094308 -0.0351421 0.734082 -0.106744 0.670618 148 143 65
-0.0197151 -0.0301996 0.0302669 -0.0238403 -0.133999 0.990695 55 94 191
-0.0293697 0.0453446 -0.0292051 0.895477 0.405438 0.183688 44 38 26
-0.0354125 -0.0124825 -0.00624605 -0.192657 -0.218368 0.95666 121 114 55
-0.0190415 -0.0291839 0.0305499 -0.129614 -0.129976 0.983009 55 93 188
-0.0269815 0.011228 -0.00315406 -0.281716 0.264851 0.92222 134 129 65
-0.0395838 -0.0248284 -0.00780108 -0.332402 -0.0530067 0.941647 165 155 62
-0.014045 -0.0959835 -0.0324931 8.11427e-14 5.12468e-13 1.0 163 152 66
-0.0276023 -0.0233087 -0.00593611 -0.188451 0.223287 0.956362 73 78 41
-0.0257841 -0.0397707 -0.00377109 -0.289868 0.0280238 0.956656 141 122 57
0.00669566 0.0114167 0.0375819 -0.438205 0.00671694 0.89885 51 87 177
-0.00144194 -0.0967676 -0.0381411 0.793915 0.0132332 0.607885 136 134 63
0.00719026 0.0389734 0.0392509 0.0844983 -0.150329 0.985018 142 54 38
-0.0414921 -0.0350302 -0.00904908 -0.415785 -0.0152963 0.909334 141 135 70
-0.00608094 0.0397006 0.0411889 0.12393 -0.224137 0.966646 122 50 36
0.00130736 0.00927543 0.0356249 -0.0889282 -0.169186 0.981564 53 92 191
0.0587198 -0.00268882 -0.0315041 0.337432 0.0246765 0.941026 161 146 56
-0.00994304 -0.059475 -0.0262661 0.100808 0.204779 0.973603 191 172 65
-0.0171685 -0.025179 0.0319669 -0.21037 -0.283059 0.935747 51 92 197
-0.00830894 -0.0340302 0.0308339 0.227864 0.174742 0.957885 106 67 83
-0.0259003 0.0569244 -0.0328232 -0.108881 0.0801675 0.990817 126 116 50
-0.00286024 -0.000735744 0.0345029 0.112076 -0.188212 0.975713 52 90 187
-0.0187418 0.00878103 0.00326589 0.217183 0.409332 0.88616 79 46 34
-0.0127172 -0.0219082 0.0322488 0.245831 -0.0936245 0.964781 46 85 176
-0.0306376 -0.0152693 -0.00655707 -0.0245311 -0.119688 0.992508 110 102 44
0.00696236 0.0303782 0.0375819 0.216516 -0.278387 0.935747 139 54 40
-0.03238 -0.0531281 -0.0288771 -0.0158313 -0.724202 0.689406 127 116 50
0.0111405 -0.0156946 0.0319669 0.556774 0.485776 0.673814 49 89 190
-0.0262736 -0.0153653 -0.00624605 -0.178415 -0.118075 0.976845 163 151 60
-0.00700574 0.0454416 0.0420169 -0.062378 -0.116645 0.991213 139 57 41
-0.0170287 0.0686174 -0.0298601 -0.184903 0.142013 0.972442 148 138 55
-0.00817994 -0.034839 0.0308339 0.236591 0.250541 0.938751 118 70 65
0.0143492 0.0552903 0.0414649 0.473265 -0.0100472 0.880863 134 52 37
-0.00214834 -0.0864613 -0.0338161 0.320533 -0.312544 0.894189 151 145 63
0.000531558 0.0797678 0.0447639 0.295922 -0.15897 0.941891 131 51 36
-0.00324774 0.088132 0.0447639 -0.369246 0.153913 0.916498 140 55 40
0.0655564 0.00851453 -0.0381411 0.431545 0.565844 0.702559 109 103 44
0.01326 0.0568523 0.0420169 0.163335 -0.0980533 0.981686 136 50 36
-0.00189624 -0.0222231 0.0308339 -0.0872632 -0.0690205 0.993791 49 87 184
-0.00137824 0.000326886 0.0345029 -0.04374 -0.168412 0.984746 49 88 181
-0.00520834 -0.061288 -0.0259411 0.340393 -0.124616 0.931989 183 166 64
-0.0332122 -0.0209679 -0.00686809 -0.064552 -0.0299889 0.997464 150 144 58
0.0106765 0.0331497 0.0361849 0.749853 -0.0671983 0.658183 133 52 37
-0.00476754 0.0926734 0.0439418 -0.316069 0.0283085 0.948314 80 39 31
-0.0168536 -0.000904454 0.0361849 0.13249 -0.16667 0.977071 54 89 166
-0.000708042 0.0319105 0.0389728 0.0644778 -0.11572 0.991187 142 55 40
0.044362 0.00596013 -0.0384761 -0.238697 0.19242 0.951839 85 77 37
-0.0383086 0.0165011 -0.00655707 -0.258715 0.313995 0.913495 138 133 55
0.00409036 0.042799 0.0403589 0.0586618 -0.16598 0.984383 141 53 38
-0.0513666 0.0149383 -0.0125001 -0.447217 0.17993 0.876141 58 60 61
-0.047927 -0.00105562 -0.0121851 0.538321 0.178121 0.823701 122 119 57
0.00603166 0.081299 0.0436679 0.0893089 -0.0926574 0.991685 134 53 37
0.00440416 0.0207371 0.0367439 0.192612 -0.0528268 0.979852 142 54 42
-0.0264361 0.0181371 -0.00780108 0.0762215 0.396904 0.91469 152 146 59
0.0531495 0.0110322 -0.0341471 -0.391707 0.225827 0.891946 81 78 37
-0.0135099 -0.00642175 0.0350649 0.132302 -0.134263 0.982074 52 91 188
0.0475644 -0.0268044 -0.0348101 0.294254 -0.296872 0.90845 127 114 51
0.00359256 -0.0202886 0.0316839 -0.494098 -0.00933223 0.869356 47 91 191
-0.00447654 -0.0715498 -0.0278961 0.29137 -0.0409704 0.955733 186 166 64
-0.00137674 -0.0151307 0.0322488 -0.0232682 -0.22231 0.974698 47 86 186
-0.00852364 -0.062803 -0.0262661 0.0607706 -0.0448288 0.997145 194 178 67
-0.00565924 -0.0752999 -0.0278961 0.345232 -0.152083 0.926113 179 160 61
0.0131728 0.0475262 0.0403589 -0.0775336 -0.188206 0.979064 134 51 35
0.0543249 -0.00331067 -0.0311751 0.0393551 0.090078 0.995157 159 143 55
-0.0177453 -0.0141826 -0.0034621 -0.565479 -0.476201 0.673399 53 71 116
-0.0291136 -0.0915501 -0.0334851 -0.0739695 -0.091775 0.993029 119 113 54
0.0599075 -0.00436773 -0.0318331 0.163018 0.012079 0.986549 167 149 56
-0.0281612 0.0344409 -0.00749006 0.153065 -0.0861518 0.984454 124 123 57
-0.0354412 0.0417517 -0.00873705 -0.0950141 0.845506 0.525445 57 56 33
-0.0329424 0.0372125 -0.0071791 -0.248031 -0.0431532 0.96779 105 107 63
0.0121008 0.0490463 0.0406359 -0.14621 -0.186081 0.971595 131 49 34
0.0101945 0.00512413 0.0364649 0.679922 -0.0479229 0.731717 50 90 191
-0.0278573 0.0467078 -0.0331541 -0.0297675 -0.137797 0.990013 74 66 36
0.0137098 0.0354764 0.0330959 0.842914 -0.281279 0.45867 141 52 38
0.0523355 -0.00793463 -0.0305171 0.156227 0.0452462 0.986684 168 153 61
-0.020551 -0.0768868 -0.0282231 -0.155297 -0.0879724 0.983943 150 135 55
-0.0323003 0.0118451 -0.00438806 -0.159832 0.31352 0.936034 123 113 47
-0.047653 -0.00713026 -0.00842508 0.430652 0.370291 0.823057 123 119 58
0.0638122 -0.0259107 -0.0378071 0.0988726 -0.315278 0.943835 149 138 56
-0.0309684 0.00374381 -0.00284608 -0.155296 0.0933137 0.983451 154 149 59
-0.0294618 -0.0715818 -0.0295321 -0.136272 0.170096 0.97596 154 146 59
0.0686041 -0.0217198 -0.0384761 0.232205 -0.371952 0.89874 162 148 58
-0.0254323 -0.0151542 -0.00593611 -0.174194 -0.126587 0.976541 153 144 57
-0.0183836 -0.00432204 0.00205091 -0.104391 -0.213796 0.971285 101 55 49
-0.0253378 0.0330349 -0.00811311 0.338453 0.0539976 0.939433 133 130 57
0.0113449 -0.0170909 0.0328139 0.49776 0.389874 0.774747 47 88 190
0.00903666 -0.0130985 0.0336589 0.513654 -0.0506692 0.8565 48 91 197
-0.0245982 -0.0309277 -0.00377109 -0.375165 0.0826471 0.923266 102 76 40
0.00168266 0.092503 0.0472199 0.168236 -0.107651 0.979851 76 35 29
-0.000651542 -0.0620368 -0.0278961 0.342511 -0.0422449 0.938564 167 152 60
-0.00432694 0.0237629 0.0381389 0.161618 -0.177334 0.970789 143 56 41
-0.0209984 0.00684053 0.0038719 -0.615895 -0.0202048 0.787569 37 33 32
-0.034944 0.033418 -0.0071791 0.221798 -0.0641879 0.972978 125 117 61
-0.0269707 -0.0107616 -0.00469711 -0.281596 -0.306879 0.909136 156 150 60
-0.0348391 -0.0105065 -0.0056261 -0.2444 -0.217616 0.94494 90 92 44
-0.0284484 -0.0234436 -0.00593611 -0.214808 0.162317 0.963074 78 83 42
-0.0358573 -0.037446 -0.00842508 -0.216547 -0.14802 0.964986 139 132 54
-0.00181034 0.0892503 0.0453108 -0.70517 0.0707319 0.705502 129 53 40
0.0657029 -0.0167314 -0.0348101 0.18658 -0.477653 0.858508 177 157 60
-0.0305361 -0.0818764 -0.0305171 -0.448728 -0.253636 0.85692 116 114 52
-0.00487644 -0.0139592 0.0325319 0.0602838 -0.254723 0.965133 47 89 191
-0.00167634 0.0479268 0.0420169 0.161152 -0.153119 0.974979 143 55 40
0.0118215 -0.0250127 0.0308339 0.447075 -0.187554 0.874613 50 87 183
0.0540998 0.021945 -0.0341471 0.0517446 -0.298068 0.953141 53 50 29
-0.0189303 0.0637542 -0.0305171 -0.230867 -0.134233 0.963682 149 138 55
0.00277016 -0.101273 -0.0590311 0.834281 0.0530773 0.548779 125 125 58
0.00671916 0.0871615 0.0439418 0.0416839 0.0105142 0.999076 136 52 39
0.00808886 -0.00215221 0.0350649 0.00738294 -0.228943 0.973412 50 90 193
0.0228018 0.0544944 0.0386949 0.435668 0.233257 0.869359 24 20 22
-0.0243916 0.075434 -0.0368061 -0.27504 0.321694 0.906017 114 107 51
-0.0206286 0.0198682 -0.00811311 0.192808 0.172144 0.966019 158 148 65
0.0731186 4.87757e-05 -0.0371391 0.370548 0.453506 0.810572 111 109 45
-0.00327564 -0.034382 0.0296979 0.392936 0.019798 0.919353 102 67 92
-0.0381357 0.0206187 -0.00780108 -0.100143 0.179887 0.978577 130 128 56
0.0515502 -0.03452 -0.0358071 0.312499 0.756002 0.575156 61 57 72
-0.00110874 0.0646519 0.0436679 0.0965365 -0.0718704 0.992731 129 61 42
0.00127416 0.0499821 0.0417409 0.108807 -0.106286 0.988364 142 55 39
-0.0275334 -0.0128108 -0.0056261 -0.297956 -0.351607 0.887465 159 150 63
-0.0325052 0.0400002 -0.00655707 -0.207322 0.150085 0.966691 71 73 39
0.0150044 0.0512511 0.0411889 0.304824 -0.0901822 0.948129 135 53 37
0.00449186 -0.010517 0.0336589 -0.239921 -0.0187115 0.970612 52 91 192
-0.0209973 -0.0797325 -0.0285501 -0.224274 -0.22162 0.948992 151 143 58
0.00454256 -0.072227 -0.0318331 0.66103 -0.00748647 0.750322 147 137 58
0.0130273 0.0483748 0.0406359 -0.133788 -0.208404 0.968849 135 51 35
0.00199326 -0.067457 -0.0295321 0.305748 -0.153896 0.939593 158 147 59
-0.00936154 0.0037869 0.0370239 0.0391217 -0.185909 0.981788 48 83 175
0.00922146 0.0164371 0.0361849 0.574522 0.210795 0.790879 107 54 53
-0.0292824 0.00401267 -0.00284608 -0.217819 0.0561681 0.974372 171 156 60
-0.0387725 -0.0299161 -0.00780108 -0.134106 -0.129914 0.982414 116 111 54
0.0516794 0.00900343 -0.0341471 -0.161599 0.288456 0.943758 88 82 37
0.0592431 -0.0256499 -0.0374731 0.292334 -0.52224 0.801128 151 137 56
-0.0381142 0.00492423 -0.00407907 -0.0116778 0.218968 0.975662 85 88 51
-0.0216367 -0.0172294 -0.00624605 0.250061 0.0562169 0.966597 114 63 41
-0.0112518 -0.0311811 0.0308339 -0.037629 0.156781 0.986916 72 77 135
0.0151598 0.015543 0.0353449 -0.209396 -0.0761913 0.974858 105 57 65
-0.0496413 0.0155354 -0.0109281 0.157324 0.237081 0.958667 49 47 42
0.00370476 0.00972353 0.0359049 -0.108611 -0.16753 0.979866 51 92 197
0.00697066 0.0805921 0.0433929 0.0266077 -0.0680611 0.997326 134 52 38
0.0564315 -0.0305994 -0.0374731 0.475603 -0.155724 0.865767 113 101 52
-0.0453572 -0.0217137 -0.00904908 -0.0242654 -0.081498 0.996378 103 95 45
0.00450466 0.0604119 0.0422929 0.0950335 -0.0950415 0.990927 137 53 38
0.0491231 0.00844693 -0.0348101 -0.6065 0.24985 0.754806 73 73 37
-0.000282742 -0.0064613 0.0330959 -0.0339586 -0.246628 0.968515 49 88 184
0.064951 0.0228004 -0.0469241 0.505523 0.591018 0.628605 41 40 26
-0.0221546 0.05594 -0.0315041 -0.245483 0.0269841 0.969025 141 128 54
-0.00624444 -0.000242524 0.0353449 0.233834 -0.20891 0.949568 53 94 196
0.0655386 -0.00550111 -0.0328232 0.0805851 0.121987 0.989255 167 149 56
-0.0213049 0.0241097 -0.00811311 0.162443 0.0603176 0.984873 150 136 57
0.0640135 0.0139838 -0.0408251 0.629681 0.488522 0.604027 79 77 37
0.00722466 0.0789992 0.0433929 9.8851e-14 5.95351e-13 1.0 137 53 37
-0.0107458 -0.0343378 0.0311169 -0.169006 0.0886105 0.981624 118 65 68
-0.000140442 -0.00733781 0.0328139 -0.0206585 -0.20466 0.978615 50 88 183
-0.0431234 0.0138012 -0.00749006 -0.317238 0.165497 0.933794 132 136 61
0.00675696 0.00580233 0.0381389 -0.319433 -0.166384 0.932888 49 91 197
-0.0444653 -0.0161174 -0.00811311 0.0747709 -0.0495562 0.995969 150 143 60
0.00821576 0.00692403 0.0384169 0.254508 -0.00455116 0.96706 49 91 196
0.0491504 -0.0206509 -0.0328232 0.14349 -0.273861 0.951005 158 142 56
-0.0296295 -0.0105436 -0.0056261 -0.194535 -0.307544 0.931436 155 146 60
0.041115 -0.0159749 -0.0305171 0.270554 -0.149127 0.951085 155 141 55
0.00771246 0.0658753 0.0425679 -1.68904e-13 -1.9256e-12 1.0 141 55 38
-0.000966143 0.0233561 0.0375819 0.0478877 -0.164044 0.98529 144 58 42
0.0495126 -0.0127675 -0.0301891 0.0993191 -0.167359 0.980881 141 127 51
0.0196778 0.058301 0.0398049 0.145911 -0.0266959 0.988937 127 50 37
-0.0220032 0.0128836 0.00083194 -0.775486 0.329481 0.538575 135 119 52
-0.0104263 0.0514894 0.0422929 -0.0773601 -0.0111774 0.996941 144 61 44
-0.0275501 0.0196344 -0.00811311 0.102795 0.158244 0.982035 148 140 54
-0.00974074 -0.0145871 0.0330959 0.297388 -0.175226 0.938539 50 87 178
-0.0141259 0.0130319 0.0375819 0.0930633 -0.0113127 0.995596 57 90 147
0.011731 -0.0195123 0.0328139 0.468209 -0.26868 0.841778 50 88 185
0.0496697 -0.0235149 -0.0338161 0.0507953 -0.318593 0.94653 153 137 55
-0.0410485 0.0279798 -0.00780108 -0.19327 0.0744532 0.978317 103 94 46
0.0743284 0.0221156 -0.0486341 0.0540571 0.306557 0.950316 19 21 19
-0.00673344 -0.0913473 -0.0328232 0.271182 -0.241076 0.931849 151 142 62
-0.00767644 -0.0851626 -0.0298601 0.180459 -0.288256 0.940395 169 158 63
-0.0119002 -0.0218538 0.0319669 0.220058 -0.100251 0.970322 45 84 174
-0.0293829 -0.0397229 -0.00780108 -0.315808 0.146317 0.937474 160 147 60
-0.0285919 -0.0714431 -0.0295321 -0.21626 0.211229 0.953212 151 143 56
-0.0237878 -0.019941 -0.0053161 -0.0599295 0.219409 0.973791 106 90 45
0.00248486 -0.00318559 0.0345029 -0.00249605 -0.140731 0.990045 49 92 199
0.0558913 -0.00752963 -0.0311751 -0.0926319 -0.00354733 0.995694 158 146 58
0.0538306 -0.0267024 -0.0348101 0.100158 -0.442067 0.891373 128 121 53
0.0575977 -0.0071765 -0.0308461 0.0322808 0.0402202 0.998669 169 151 58
0.00235856 0.0383133 0.0398049 0.0837955 -0.149037 0.985275 141 53 37
-0.0223193 0.00952493 0.00144193 -0.565448 0.203408 0.799308 65 60 41
-0.0220242 0.0231879 -0.00780108 0.112401 0.0246534 0.993357 143 131 53
-0.0379602 -0.0352538 -0.00873705 0.00585868 -0.0413898 0.999126 147 144 62
-0.00514774 -0.00192582 0.0345029 0.178044 -0.18902 0.965698 52 94 195
0.0570651 -0.0342826 -0.0381411 0.544291 -0.0239106 0.838556 72 65 61
-0.0129784 -0.00978095 0.0345029 0.112564 -0.0945551 0.989135 50 88 185
-0.0326973 0.0141838 -0.0053161 -0.0128905 0.374668 0.927069 126 122 56
-0.0263196 -0.0204227 -0.0056261 -0.323443 0.25735 0.91058 109 100 45
0.0739608 0.00766843 -0.0398171 0.107782 0.391746 0.913738 87 82 37
-0.0206657 0.0150918 -0.00192406 -0.58606 0.738472 0.333456 126 121 54
0.0757656 0.00787833 -0.0401532 0.117756 0.328927 0.936985 100 92 39
0.021018 0.0496491 0.0406359 0.264945 0.104117 0.958626 70 36 29
-0.0272713 0.0487019 -0.0324931 -0.404589 0.0338704 0.913871 94 88 44
-0.00497274 0.0582262 0.0431179 0.00597336 -0.0369507 0.999299 129 57 43
-0.0337969 -0.000376004 -0.00377109 -0.0820905 -0.183479 0.97959 109 106 48
0.0150482 0.0711321 0.0425679 0.204211 -0.149285 0.967477 136 51 35
0.0465444 -0.0161694 -0.0311751 0.0700905 -0.372299 0.925463 130 121 55
0.000652557 -0.00713946 0.0330959 -0.17398 -0.260634 0.949632 50 91 190
-0.00269264 -0.0603866 -0.0272441 0.440373 -0.13407 0.887748 177 157 63
0.0494123 -0.0322555 -0.0361401 0.289358 0.192802 0.937603 81 78 62
0.0721556 5.52256e-05 -0.0364731 0.43598 0.472763 0.765778 125 116 46
0.0734466 -0.0176018 -0.0394811 0.358058 -0.140336 0.923093 82 86 41
0.00440846 0.0257979 0.0373029 0.290911 -0.215268 0.932218 141 55 41
0.0612158 -0.0264138 -0.0381411 0.0438211 -0.400413 0.915286 145 133 53
-0.0247274 -0.0301655 -0.00407907 -0.349531 0.135174 0.927122 98 78 42
-0.00860114 0.0451872 0.0420169 -0.0885166 -0.112118 0.989745 142 61 41
-0.0465198 -0.0255405 -0.00967409 -0.0839795 -0.236905 0.967896 64 60 39
-0.0189852 -0.0118598 -0.00377109 -0.535819 -0.424996 0.729573 89 56 49
0.0540419 -0.0326898 -0.0371391 -0.059448 0.0745485 0.995444 80 73 61
0.0115511 0.0330573 0.0350649 0.650356 -0.107547 0.751978 134 53 37
0.0713485 0.0153165 -0.0442031 0.0544704 0.326082 0.943771 68 69 34
-0.000580343 0.0311096 0.0389728 0.0770845 -0.129402 0.988591 142 56 41
0.0448128 -0.00556166 -0.0305171 -0.499506 0.347239 0.793674 117 110 52
-0.000329442 0.0447118 0.0411889 0.187262 -0.19137 0.963489 145 56 40
-0.0275573 -0.0182515 -0.00655707 -0.156619 0.0872304 0.983799 139 130 55
-0.0171873 0.0167806 0.0381389 4.87486e-13 -4.56554e-13 1.0 122 59 45
-0.00518894 -0.101063 -0.0331541 0.272325 0.142786 0.951552 155 148 60
0.00740676 -0.0677025 -0.0331541 0.617007 -0.00991319 0.786895 141 133 56
-0.020809 0.0109587 0.00296191 -0.490366 0.179687 0.852791 65 61 38
-0.00352684 -0.100355 -0.0344781 0.756676 0.156953 0.634671 144 144 62
-0.0209925 -0.0573617 -0.0282231 -0.368089 0.108742 0.92341 164 153 63
0.00387346 0.0693946 0.0428429 0.0916984 -0.079697 0.992592 139 56 39
-0.0411463 -0.0261064 -0.00842508 -0.332412 -0.0530107 0.941643 146 138 57
-0.0164943 -0.0188984 0.0333779 0.190825 -0.20655 0.959647 52 93 196
-0.0133961 -0.0228438 0.0322488 0.150485 -0.0688063 0.986215 47 85 179
0.00620386 -0.00582488 0.0347839 -0.174855 -0.0417926 0.983707 53 90 185
-0.050633 -0.000824874 -0.0131311 -0.787501 0.0987271 0.608355 65 65 62
0.012836 0.0199339 0.0345029 0.0460753 -0.0695971 0.996511 134 52 40
-0.0414168 -0.0244098 -0.00842508 -0.296218 -0.137509 0.94517 155 146 58
-0.0358346 0.043702 -0.0121851 -0.379795 0.448718 0.808955 42 43 28
0.0754241 0.0110572 -0.0418361 -0.0886093 0.650616 0.75422 79 73 35
0.0134462 0.0458767 0.0400829 -0.0340809 -0.267667 0.962909 136 51 35
-0.0448177 -0.0251901 -0.00936206 -0.0685827 -0.244668 0.967178 110 102 49
-0.0409182 0.00600523 -0.00500705 -0.380677 0.47306 0.794543 131 130 57
0.00465096 0.0645699 0.0425679 0.0430655 0.00183502 0.999071 136 53 34
-0.0159532 -0.0170836 0.0336589 0.130808 -0.172079 0.97636 53 93 187
-0.0225979 0.0698933 -0.0334851 -0.577169 0.36149 0.732257 135 125 53
0.0693728 -0.0256487 -0.0401532 0.43472 -0.287672 0.853383 143 131 52
-0.0241912 0.0797919 -0.0381411 -0.118405 0.282521 0.951925 40 42 30
-0.0191769 -0.0630153 -0.0272441 -0.207554 0.17141 0.963089 178 168 62
0.00849216 -0.0688327 -0.0344781 0.666634 0.012805 0.745275 138 128 53
-0.00918804 -0.00766668 0.0339409 0.146097 -0.186464 0.971538 49 87 181
-0.00960934 -0.0258641 0.0311169 0.193717 -0.189395 0.962602 51 91 182
-0.00849494 0.0240998 0.0389728 0.0545838 -0.152548 0.986788 126 53 40
-0.00906264 -0.0136516 0.0330959 0.212931 -0.177775 0.960758 51 89 181
-0.00298594 0.0560439 0.0428429 0.0976255 -0.0704362 0.992728 116 49 37
0.0175002 -0.00849327 0.0302669 -0.166667 -0.237111 0.957079 110 51 50
0.0130048 -0.0682751 -0.0438641 0.697354 0.00363583 0.716718 109 105 48
0.0202282 -0.0736821 -0.0445421 0.619763 0.269845 0.736938 63 66 89
-0.00301364 -0.0751858 -0.0288771 0.369215 -0.245638 0.896294 164 153 59
0.00590046 -0.0751091 -0.0331541 0.390855 -0.168062 0.904979 140 131 56
0.0470068 0.00578443 -0.0371391 -0.687534 0.430875 0.584503 85 84 41
-0.0313519 0.0217004 -0.00780108 0.0307011 0.0671375 0.997271 103 104 48
-0.0498098 0.0112109 -0.0106141 0.280913 -0.01789 0.959567 51 50 43
-0.0386036 0.0345721 -0.0071791 0.0872645 -0.0383496 0.995447 132 126 61
0.0101212 0.0712081 0.0428429 -0.0886465 -0.0930186 0.99171 146 54 38
-0.0213473 0.0352358 -0.00904908 0.0774423 0.12535 0.989085 101 99 45
-0.00435644 0.00342556 0.0356249 0.241434 -0.0933897 0.965913 51 93 201
-0.00650404 -0.0297536 0.0302669 0.030916 0.012743 0.999441 54 89 189
0.000496857 0.0648624 0.0433929 0.237143 -0.0500825 0.970183 145 66 45
0.0161118 0.0148058 0.0350649 -0.262462 -0.0898293 0.960752 100 59 74
-0.0196823 -0.0767482 -0.0282231 -0.156742 -0.0590589 0.985872 174 159 62
0.00940456 -0.0205567 0.0333779 0.143914 -0.287493 0.946909 48 90 188
0.00573666 -0.028472 0.0308339 0.501139 -0.285707 0.816842 49 91 191
-0.00838134 -0.0283923 0.0302669 0.129203 -0.0268754 0.991254 53 91 190
0.00500566 0.0472 0.0411889 0.0696941 -0.152414 0.985856 141 54 38
0.0754205 0.0199202 -0.0469241 -0.0803437 0.751403 0.654934 24 24 19
0.0606029 -0.00872864 -0.0318331 0.101168 -0.0214066 0.994639 174 159 59
0.00274826 0.0560428 0.0422929 0.0418905 0.0104249 0.999068 143 53 38
0.00766546 -0.074932 -0.0334851 0.343163 -0.181833 0.921508 130 124 53
-0.013262 0.0729263 -0.0288771 -0.488991 0.0469136 0.871026 144 133 53
-0.00367544 0.0451018 0.0417409 0.157839 -0.190331 0.968948 122 51 37
-0.0137385 -0.0922456 -0.0321631 -0.0840149 -0.0903889 0.992356 153 146 64
-0.0159677 -0.100766 -0.0324931 0.0324879 0.0131236 0.999386 163 153 64
-0.0304042 -0.0221778 -0.00655707 -0.259234 0.0762541 0.9628 100 99 46
-0.0253497 -0.0925245 -0.0328232 -0.101783 -0.0123964 0.994729 144 133 59
0.0680024 -0.0035589 -0.0338161 0.202925 0.182929 0.961955 164 146 55
-0.0267395 -0.0550903 -0.0295321 -0.0821244 -0.389714 0.917267 148 133 52
0.0109178 0.0763224 0.0433929 -0.167388 -0.0730779 0.983179 143 54 38
0.00685926 -0.0150244 0.0339409 -0.269899 0.0320219 0.962356 49 91 194
-0.0209818 -0.0212271 -0.0053161 0.0497685 0.369554 0.927875 111 56 45
0.0613895 -0.0181453 -0.0341471 0.261855 -0.338386 0.90384 170 152 59
-0.0205728 -0.09434 -0.0324931 3.80759e-14 8.02059e-13 1.0 151 140 60
0.0713556 -0.0124083 -0.0354741 0.64951 -0.341049 0.679575 153 141 56
-0.0296237 -0.0326384 -0.0071791 -0.462695 0.025118 0.886162 167 155 62
0.00381016 0.0495177 0.0414649 0.0697843 -0.152586 0.985823 140 53 37
0.014103 0.0768303 0.0433929 0.157021 -0.104019 0.982102 126 46 32
-0.0406044 -0.0294194 -0.00811311 -0.270615 -0.0100947 0.962635 110 109 56
0.0118257 0.0313917 0.0347839 0.637605 0.00312277 0.770357 137 53 36
0.016875 0.0273261 0.0274169 0.799588 0.359734 0.480885 133 52 37
-0.0267939 0.0403469 -0.0295321 -0.357397 0.494318 0.792412 31 28 20
0.0155166 -0.0115224 0.0294139 -0.123812 -0.102949 0.986951 62 68 140
0.0200647 0.0703422 0.0428429 -0.18615 -0.10908 0.976448 122 49 38
-0.0489332 -0.00972423 -0.00749006 0.195443 0.203579 0.959353 83 83 74
0.0554943 0.0131995 -0.0341471 -0.0745432 0.210245 0.974803 84 79 37
0.0630561 -0.0219908 -0.0361401 0.247278 -0.370561 0.895286 159 146 61
0.00154316 0.00264892 0.0353449 0.0547769 -0.0946269 0.994005 52 91 190
0.0147253 -0.0117236 0.0291289 -0.0108925 -0.0999217 0.994936 49 80 180
0.0715451 0.0136841 -0.0435251 0.06089 0.411344 0.909444 75 73 35
-0.00503324 0.00763753 0.0364649 0.415393 -0.21628 0.883556 51 94 194
-0.0430929 0.018769 -0.00873705 -0.236851 0.379902 0.89419 111 110 52
-0.000960743 0.068801 0.0439418 0.164174 -0.0695223 0.983978 128 51 37
-0.00808584 -0.0198167 0.0311169 0.208782 -0.199044 0.957492 51 92 190
0.0120784 0.0691132 0.0431179 -0.0857584 -0.0538089 0.994862 131 50 36
-0.00123974 -0.0108224 0.0328139 0.0754859 -0.022393 0.996895 48 87 178
-0.00901294 0.0324554 0.0400829 -0.00394172 -0.129053 0.99163 141 59 43
0.00662916 0.00660413 0.0381389 -0.470361 -0.0769878 0.879109 49 91 198
0.0502443 -0.0117577 -0.0301891 0.137801 -0.087545 0.986583 135 124 53
0.0685405 -0.000942514 -0.0344781 0.270248 0.346078 0.898441 157 136 52
-0.0449532 -0.0243409 -0.00936206 -0.0358187 -0.169723 0.984841 113 99 47
0.0122504 0.0936464 0.0431179 0.373086 0.524838 0.765083 44 24 24
-0.0437008 -0.0269148 -0.00998708 -0.286252 -0.207159 0.935492 130 122 53
-0.0151711 -0.0657385 -0.0265921 -0.102913 -0.0857046 0.990991 196 177 67
-0.0283432 0.0141429 -0.00469711 -0.0330565 0.499425 0.865726 117 108 59
0.014375 -0.0148781 0.0299829 -0.00209495 0.530397 0.847747 53 80 177
-0.0258814 0.0735336 -0.0358071 0.176876 0.0544081 0.982728 118 112 52
-0.0224604 0.020446 -0.00811311 0.0285651 0.204898 0.978366 150 144 59
0.0521468 -0.0320918 -0.0371391 0.24677 -0.0279225 0.968672 87 80 60
-0.0155109 0.00102507 0.0364649 0.0969826 -0.131875 0.986511 55 93 172
0.0102398 0.0205325 0.0353449 0.147173 0.085072 0.985446 136 52 37
-0.0204031 -0.0897287 -0.0321631 -0.0827544 -0.283793 0.955308 162 151 64
-0.0267098 0.0451551 -0.0328232 -0.479733 0.0687695 0.874715 64 59 34
-0.0389837 0.0204834 -0.00780108 -0.214391 0.182438 0.959559 123 125 56
0.0600466 -0.00523972 -0.0318331 0.147226 -0.0118793 0.989031 166 152 58
0.0689506 0.0125139 -0.0428491 0.126941 0.548268 0.826613 88 83 37
0.0727697 0.0188069 -0.0459021 0.00820359 0.624831 0.780717 41 42 27
-0.0155511 -0.0196492 0.0330959 0.124068 -0.225023 0.966422 50 93 192
-0.0263956 0.0655592 -0.0344781 -0.525367 0.355392 0.773102 122 115 49
-0.0254213 0.0389405 -0.00904908 0.32031 0.33372 0.886585 63 65 36
-0.0497389 0.00463713 -0.0128151 -0.364369 -0.0564846 0.92954 62 61 46
-0.0274716 -0.0240757 -0.0056261 -0.256022 0.213868 0.942716 81 85 46
0.0688097 0.0222188 -0.0482911 0.0745897 0.37766 0.922935 40 41 26
0.0736352 -0.0137065 -0.0384761 0.354507 -0.38786 0.850817 91 94 43
0.00421586 0.0570951 0.0422929 0.121894 -0.0277322 0.992156 138 53 36
0.0170901 -0.0772255 -0.0398171 0.581277 0.0918494 0.808505 65 63 58
-0.0384918 -0.00942828 -0.00593611 0.150816 -0.151994 0.976807 104 103 51
-0.0306469 -0.0753383 -0.0295321 -0.127708 -0.0954612 0.987207 148 138 54
-0.0373057 -0.000211514 -0.00438806 0.031971 -0.134718 0.990368 62 69 39
-0.0230466 -0.0136771 -0.00500705 -0.0104032 -0.312611 0.949824 101 93 46
0.0383716 -0.0100804 -0.0301891 0.355247 0.189741 0.915313 109 109 48
-0.0112594 0.036252 0.0403589 -0.181063 -0.129735 0.974877 143 62 44
-0.0161874 0.0633481 -0.0301891 -0.142951 -0.103551 0.984298 156 142 55
-0.00270834 -0.100005 -0.0364731 0.866865 0.108177 0.486665 143 139 62
-0.00757794 -0.0125875 0.0330959 0.105777 -0.169329 0.979867 52 92 196
0.0538895 0.01811 -0.0351421 -0.0533194 0.0412152 0.997727 60 61 32
0.0135532 0.0501488 0.0409129 -0.0579811 -0.227481 0.972055 135 51 36
-0.0124385 -0.0948322 -0.0324931 0.0324797 -0.100384 0.994418 164 151 65
0.00143436 0.0641491 0.0431179 0.247393 -0.0214734 0.968677 148 62 43
-0.0205555 0.00941633 0.00356892 -0.361159 0.267818 0.893217 45 43 32
-0.0109571 0.00346561 0.0367439 -0.149745 -0.175463 0.973031 48 87 164
0.00492796 0.0326948 0.0384169 0.22225 -0.152671 0.962962 137 53 37
-0.0160197 0.0678861 -0.0298601 -0.203312 0.0143731 0.979008 149 139 54
-0.0353467 -0.0239938 -0.0071791 0.0445685 -0.036025 0.998357 163 155 63
-0.00802084 0.010844 0.0381389 0.0653405 -0.0673054 0.995591 48 83 166
0.00513086 -0.0196605 0.0330959 -0.432093 -0.162922 0.886991 49 89 192
0.0565875 -0.00644445 -0.0308461 -0.0917127 -0.000542702 0.995785 158 146 56
0.0533779 -0.0141865 -0.0311751 0.143592 -0.20498 0.968176 172 153 57
-0.00870844 -0.0842224 -0.0292051 0.0407822 -0.248738 0.967712 175 160 62
0.0547593 0.0121851 -0.0341471 -0.142859 0.241129 0.959921 85 79 38
0.0100824 -0.0196213 0.0333779 0.240471 -0.230929 0.942786 49 89 185
-0.00782704 -0.0841881 -0.0295321 0.166449 -0.223098 0.96048 173 159 63
-0.0107249 0.0380314 0.0406359 -0.228203 -0.100681 0.968394 141 62 44
-0.0208537 -0.0219945 -0.00500705 0.0310634 0.381387 0.923893 102 55 46
0.0510755 -0.016425 -0.0315041 0.126231 -0.327335 0.936439 140 132 52
-0.0322727 -0.00467664 -0.00469711 -0.0352484 -0.110493 0.993252 147 136 59
0.00331496 -0.00829664 0.0333779 -0.107786 -0.0399261 0.993372 50 92 197
0.0137974 0.0394153 0.0361849 0.575896 -0.528567 0.623667 135 53 37
0.0585482 0.019581 -0.0401532 0.710601 0.419385 0.564945 58 57 32
-0.00257394 0.0636021 0.0436679 0.0488778 -0.0349698 0.998192 112 54 38
0.00963046 0.00345451 0.0367439 0.557826 -0.171956 0.811949 49 91 192
-0.00595334 0.0185103 0.0378599 0.305881 -0.161926 0.938199 125 55 44
0.0663127 -0.00456251 -0.0331541 0.146344 0.127739 0.980952 166 149 56
0.0626596 -0.0199964 -0.0351421 0.254158 -0.324062 0.911256 162 149 56
0.0117615 -0.00911474 0.0314009 0.770799 -0.197147 0.605806 47 90 189
-0.000595342 0.0564251 0.0428429 0.125553 -0.0663147 0.989868 139 55 41
-0.0281718 -0.103162 -0.0338161 -0.451329 -0.181023 0.873804 150 138 59
-0.00271584 -0.0885628 -0.0344781 0.698921 -0.302697 0.647985 150 148 62
-0.0518307 -0.000318144 -0.0178901 -0.122003 0.167611 0.978275 69 68 77
-0.0227739 -0.0973755 -0.0324931 -0.0295939 0.0146731 0.999454 150 142 61
0.00481166 0.0283898 0.0375819 0.249248 -0.189796 0.949659 142 53 38
-0.05252 0.00390298 -0.0182091 -0.218665 -0.211958 0.952502 72 73 80
0.0127331 -3.95044e-05 0.0339409 0.507938 -0.37014 0.777814 50 92 193
-0.0277554 -0.0767637 -0.0298601 -0.255854 -0.25245 0.933171 147 136 53
0.0703135 0.00731773 -0.0388111 0.128437 0.426658 0.895247 112 105 43
-0.0140665 -0.0133306 0.0342219 0.0544517 -0.152556 0.986794 50 91 191
-0.00797684 -0.015281 0.0325319 0.144273 -0.242187 0.959443 49 92 192
-0.023414 0.0109372 0.00083194 -0.471809 0.201033 0.858477 112 100 52
0.0722123 0.00671823 -0.0388111 0.24621 0.347219 0.904887 104 99 42
-0.0296535 -0.0380263 -0.00780108 -0.239686 -0.102136 0.965463 164 151 60
0.0665694 0.0259972 -0.0503501 0.210393 0.704542 0.677758 22 22 19
0.0554449 0.00118176 -0.0318331 -0.166002 0.202895 0.965027 145 131 52
0.0142167 0.0660953 0.0425679 0.468786 -0.0583084 0.881385 134 51 36
0.00709996 -0.0165628 0.0342219 -0.188735 -0.023268 0.981752 49 90 195
0.051437 0.0167498 -0.0354741 0.198658 -0.0957189 0.975383 58 58 31
0.00836786 0.0164923 0.0370239 0.374801 0.356354 0.855883 110 53 52
0.0420167 -0.0159142 -0.0308461 0.184027 -0.248161 0.951078 163 145 57
0.00947766 0.0148304 0.0361849 0.607312 0.0676062 0.791582 79 64 95
-0.0111526 0.0253185 0.0389728 -0.063644 -0.159115 0.985206 144 60 44
-0.00878774 0.0156533 0.0381389 0.00595681 -0.0372616 0.999288 65 64 103
0.020957 -0.0782108 -0.0448821 0.653232 0.0847956 0.752395 63 65 87
-0.00532014 -0.0662425 -0.0275701 0.251949 -0.153989 0.95541 184 166 64
-0.0101265 -0.0866591 -0.0305171 -0.177209 -0.390392 0.903433 168 159 66
-0.00865694 -0.0961308 -0.0328232 0.181597 -0.0279795 0.982975 165 156 65
0.00760586 0.0364645 0.0386949 0.159811 -0.170622 0.97229 143 54 38
-0.00430324 0.0591502 0.0431179 -0.0176013 -0.120054 0.992611 124 54 40
0.0189107 -0.0769888 -0.0428491 0.849108 0.082553 0.521728 63 64 79
-0.00176754 -0.00752538 0.0330959 0.142577 -0.189778 0.97142 48 86 183
0.0193147 0.0651331 0.0417409 -0.122971 -0.249309 0.960585 131 52 37
-0.0105425 -0.00953632 0.0339409 0.228856 -0.0807361 0.970107 49 85 173
0.0121887 0.0633669 0.0428429 -0.0310958 -0.098346 0.994666 128 48 34
-0.0316897 -0.0250683 -0.00686809 -0.116909 0.0182637 0.992975 107 110 49
-0.0113654 -0.0252368 0.0314009 0.213113 -0.178234 0.960633 46 85 168
-0.0371166 0.0251902 -0.00749006 -0.15491 -0.21497 0.964256 157 147 58
-0.0311413 0.0152997 -0.0053161 -0.20747 0.453255 0.8669 96 97 53
0.00992786 -0.028713 0.0305499 -0.136919 -0.606759 0.783005 48 87 182
-0.0340292 0.0220806 -0.00811311 0.128162 -0.00150122 0.991752 137 129 61
0.00540376 -0.0213486 0.0328139 -0.113529 -0.135427 0.984262 48 90 192
0.0132452 0.0018325 0.0345029 0.536413 -0.152613 0.830043 52 88 192
-0.024624 -0.0362927 -0.00438806 -0.0474888 0.00793392 0.99884 119 82 48
-0.00743014 -0.0239349 0.0308339 0.158197 -0.0384482 0.986659 49 90 180
-0.017543 0.071874 -0.0315041 -0.440293 0.312968 0.841542 146 137 55
-0.0265278 0.0136973 -0.00407907 -0.26402 0.582524 0.768739 142 129 63
0.0685533 0.0157781 -0.0442031 0.169577 0.35666 0.918715 71 71 34
0.0117804 -0.0143106 0.0305499 0.466221 0.310156 0.828517 48 89 189
-0.00354444 -0.0119443 0.0330959 0.0194136 -0.143271 0.989493 47 87 180
-0.0410546 0.00671553 -0.0056261 -0.426634 0.401854 0.810245 139 137 60
0.0657586 0.0243955 -0.0486341 0.277759 0.651005 0.70643 30 32 22
-0.00283754 -0.0163419 0.0316839 -0.0580535 -0.264771 0.962562 47 87 180
0.0566109 0.0257316 -0.0394811 0.893688 0.160137 0.41914 34 34 24
-0.0327088 -0.00749143 -0.0053161 0.0793484 -0.257122 0.963116 130 120 52
-0.0451878 0.00402716 -0.0109281 -0.61652 0.0143103 0.787209 150 146 61
-0.025531 0.0657932 -0.0338161 -0.53051 0.28416 0.798631 126 117 50
-0.0128765 -0.0633017 -0.0256161 -0.279797 -0.119041 0.95265 194 178 69
-0.038663 -0.0140195 -0.00686809 0.0886704 -0.157485 0.983532 144 137 59
-0.0136818 0.0205669 0.0378599 -0.104641 -0.0797745 0.991305 141 61 44
-0.0307867 -0.0582795 -0.0321631 -0.333829 -0.253921 0.90779 147 136 55
0.0466565 -0.0268611 -0.0344781 0.324767 -0.269497 0.906586 115 103 48
-0.0304753 -0.0106785 -0.0056261 -0.100533 -0.211558 0.972181 156 142 60
-0.00946574 -0.00591759 0.0345029 0.134701 -0.257877 0.956742 48 87 183
-0.031721 -0.0304483 -0.00749006 -0.128849 -0.107066 0.985867 173 164 64
-0.0179889 0.0166528 0.0381389 -0.00639719 -0.0342991 0.999391 121 56 42
-0.0375381 0.00661203 -0.00469711 -0.163704 0.239039 0.957111 112 110 54
-0.0140652 -0.0726739 -0.0265921 -0.0674781 -0.153677 0.985814 195 177 67
-0.014651 0.0537199 -0.0305171 -0.286094 -0.130827 0.949228 112 93 44
-0.0478433 0.00964613 -0.0112421 -0.350705 -0.235052 0.906508 83 78 45
0.0650214 -0.00208191 -0.0331541 0.221816 0.0980515 0.970146 160 143 54
-0.0286065 -0.000272354 -0.00315406 -0.0804051 -0.193353 0.977829 143 134 59
-0.0136788 -0.0315681 0.0308339 -0.00446754 0.0267708 0.999632 61 81 159
0.0659564 -0.00812101 -0.0328232 0.092644 0.024936 0.995387 168 151 56
-0.00272604 0.00869812 0.0359049 0.159767 -0.170849 0.972258 51 91 201
-0.0179589 -0.082131 -0.0292051 -0.0398581 -0.366487 0.929569 158 146 61
0.0502457 0.000274696 -0.0321631 -0.284819 0.310339 0.906955 114 105 45
-0.00367124 0.0960777 0.0436679 -0.286554 0.131206 0.949037 45 25 23
0.0223196 0.0521087 0.0395279 0.4054 0.118464 0.906431 34 24 23
0.0141055 0.0718435 0.0428429 0.278968 -0.107039 0.954316 133 49 33
-0.0298075 -0.0807638 -0.0301891 -0.0171697 -0.0377151 0.999141 131 124 53
-0.00649194 -0.0246156 0.0308339 0.120107 -0.0561059 0.991174 49 88 185
0.00904766 0.0426609 0.0398049 0.261111 -0.166278 0.95088 141 53 39
-0.0425175 0.0204769 -0.00936206 -0.322344 0.0697101 0.944052 105 106 50
-0.0271296 -0.0694256 -0.0295321 -0.166902 0.12511 0.978004 163 153 61
-0.00710844 0.0562523 0.0431179 -0.113569 -0.0285915 0.993119 141 61 44
-0.0291477 0.0352111 -0.0071791 0.156797 -0.0879807 0.983704 118 119 55
-0.0412815 -0.0252581 -0.00842508 -0.31485 -0.112219 0.942484 155 144 61
0.00210886 -0.102869 -0.0579801 0.842059 0.0847455 0.532686 129 129 57
-0.0232349 -0.0396215 -0.00469711 0.429723 -0.117994 0.895218 101 64 48
0.0463941 0.00278044 -0.0341471 -0.476091 0.517939 0.710687 88 84 40
-0.0463391 -0.0209215 -0.00873705 -0.122198 -0.174065 0.977123 71 63 40
-0.00489204 -0.0689448 -0.0278961 0.253898 -0.00280085 0.967227 187 167 63
0.0731396 -0.0115618 -0.0368061 0.455607 -0.539917 0.707752 102 103 45
-0.0267217 -0.0339457 -0.00407907 -0.379159 -0.0539882 0.923755 141 133 56
-0.0330134 0.0267133 -0.00749006 0.0323726 -0.101604 0.994298 169 159 65
-0.0263306 0.0429837 -0.0301891 -0.393529 0.592606 0.702818 42 36 24
-0.0226347 -0.0982484 -0.0324931 -0.0217595 -0.0316938 0.999261 156 147 63
-0.0134191 -0.0599331 -0.0259411 -0.502872 -0.00953313 0.864308 187 172 68
-0.00687854 0.0446436 0.0420169 -0.0775806 -0.143286 0.986636 137 57 42
-0.00473574 0.0313826 0.0395279 0.130432 -0.151549 0.979806 129 51 36
0.00701776 -0.0210912 0.0328139 -0.107078 -0.351657 0.929985 49 90 193
-0.0265014 -0.0909179 -0.0328232 -0.241638 -0.142931 0.959782 143 132 58
-0.0334901 0.0187509 -0.00780108 0.17982 0.246233 0.952383 90 89 51
-0.0535784 -0.00580484 -0.0175711 -0.144179 0.0106126 0.989495 75 71 83
-0.0165287 0.0766848 -0.0301891 -0.707064 -0.19341 0.680187 103 103 49
-0.0183785 -0.015919 -0.00655707 0.201801 -0.315222 0.927314 57 61 82
-0.0157752 0.0026973 0.0367439 0.0884616 -0.181662 0.979374 56 92 163
-0.00190934 0.0240887 0.0378599 0.0920912 -0.207363 0.97392 141 60 43
0.0146214 0.00398203 0.0322488 0.408174 0.0909749 0.90836 51 89 190
-0.0507455 0.00507803 -0.0140781 -0.764879 -0.0774415 0.639502 58 57 53
-0.0218818 0.0121739 0.00144193 -0.67245 0.0742404 0.73641 118 105 49
-0.0350444 0.00202045 -0.00377109 -0.199212 -0.0560187 0.978354 61 61 33
0.0491338 -0.00479364 -0.0301891 0.106229 0.259172 0.959971 130 120 52
0.00794516 0.0493062 0.0411889 0.240219 -0.13931 0.960671 143 55 40
0.0586386 0.010188 -0.0338161 0.272461 0.351561 0.895639 99 92 41
-0.0241771 -0.0884349 -0.0318331 -0.0901807 -0.279972 0.955763 165 153 65
-0.0204338 -0.0952119 -0.0324931 2.77707e-13 4.10545e-13 1.0 154 141 63
0.017103 0.0887403 0.0433929 0.203692 0.206102 0.957095 114 47 36
-0.0219368 0.00720933 0.0023549 -0.61765 0.179642 0.765661 38 37 34
-0.00530054 0.00416613 0.0359049 0.302362 -0.100464 0.947884 51 94 201
-0.00694824 -0.10123 -0.0328232 0.057909 0.123441 0.990661 153 144 63
0.0624223 0.0108674 -0.0374731 0.560822 0.55383 0.615428 97 91 40
0.0190054 0.0573736 0.0398049 0.0432851 0.00181439 0.999061 135 52 38
-0.000175243 -0.0123083 0.0328139 0.0188281 -0.117815 0.992857 48 90 190
-0.00459164 0.0558364 0.0431179 0.0725794 -0.0515697 0.996029 123 54 39
-0.049327 0.00214789 -0.0125001 0.0454292 0.259935 0.964557 81 78 50
0.016789 0.0705479 0.0422929 -0.0674695 -0.151309 0.986181 136 53 38
0.0630762 0.0133017 -0.0391461 0.552654 0.312372 0.772656 83 81 38
0.00684356 0.081389 0.0433929 0.0789298 -0.0948324 0.992359 134 51 37
-0.0343669 0.0352477 -0.0071791 0.182093 -0.0428812 0.982346 123 117 64
-0.000693243 -0.0843295 -0.0334851 0.155675 -0.195398 0.96829 129 128 58
0.00396706 -0.00212394 0.0345029 -0.070229 -0.136099 0.988203 54 91 187
-0.0203145 0.023335 -0.00842508 0.199892 0.019407 0.979626 147 139 58
0.0531313 -0.0228758 -0.0334851 0.0251223 -0.251565 0.967514 151 139 56
-0.0351469 -0.0362938 -0.00780108 -0.189619 -0.102521 0.976491 142 133 55
0.0715749 0.0218203 -0.0479491 0.011523 0.336214 0.941715 35 37 25
0.0483947 0.000796726 -0.0324931 -0.152001 0.340496 0.927878 96 91 43
0.00890646 0.028747 0.0361849 0.159053 -0.273378 0.948666 135 53 39
-0.0173692 0.00757923 0.0375819 -0.110168 -0.0471051 0.992796 69 68 81
0.0613739 -0.00234559 -0.0318331 0.124323 0.067819 0.989921 140 132 51
-0.00420764 0.0127766 0.0367439 0.294087 -0.0919148 0.951349 56 84 164
-0.0373476 -0.0278692 -0.00749006 -0.152508 -0.0401522 0.987486 145 132 56
-0.023395 -0.0223198 -0.00469711 0.142809 0.312275 0.939197 97 70 40
0.0528283 0.000764496 -0.0318331 -0.109006 0.341736 0.933453 127 118 47
-0.00126514 0.0555011 0.0428429 0.0870296 -0.0585882 0.994481 137 55 39
0.0649439 -0.0073873 -0.0328232 0.155203 0.0993063 0.982879 170 153 57
-0.0461184 -0.0282532 -0.0103011 -0.156196 -0.343663 0.926012 96 88 45
-0.0137233 -0.0636322 -0.0262661 -0.315196 -0.173997 0.93294 195 176 69
-0.00409864 0.0935962 0.0439418 -0.224536 0.0642608 0.972345 68 35 29
0.00859816 -0.0206853 0.0333779 0.0187209 -0.293878 0.955659 49 90 192
-0.0204149 -0.0836244 -0.0298601 -0.133362 -0.327726 0.935313 173 160 65
-0.00247394 0.0477996 0.0420169 0.178688 -0.130107 0.975265 134 53 38
-0.0308087 0.040215 -0.00686809 0.158033 0.209003 0.965061 76 75 38
-4.21423e-05 0.0930765 0.0474919 -0.0878125 -0.000809949 0.996137 77 36 30
0.00836026 0.00605793 0.0381389 0.24676 -0.115824 0.96213 50 90 192
0.00173286 -0.0190034 0.0314009 0.0555943 -0.0478771 0.997305 49 92 194
-0.032466 -0.014693 -0.00655707 0.0611517 -0.1329 0.989241 83 83 40
-0.0242537 -0.0705508 -0.0288771 -0.169037 0.208063 0.963398 167 153 59
-0.0259888 0.0207532 -0.00811311 -0.0426903 -0.00767994 0.999059 137 136 57
-0.0244812 0.0536754 -0.0321631 -0.237229 0.0974364 0.966555 123 116 52
-0.0548467 -0.00336814 -0.0175711 0.0714282 0.0225832 0.99719 74 74 88
-0.016899 -0.0322416 0.0302669 -0.106076 -0.178735 0.978162 62 92 180
-0.0245312 -0.0422534 -0.00407907 0.171439 -0.300789 0.938155 139 107 55
-0.000586443 0.000522006 0.0347839 -0.144311 -0.167953 0.975175 48 87 185
0.00833446 -0.0678584 -0.0341471 0.677928 0.0162672 0.734948 140 130 54
0.00944796 0.0452391 0.0400829 0.282394 -0.206341 0.936844 141 54 37
0.0494069 6.2956e-05 -0.0324931 -0.151905 0.340531 0.927881 106 96 44
-0.0160871 -0.0768595 -0.0275701 -0.079509 -0.170815 0.98209 178 164 63
-0.0166949 0.00850903 0.0375819 -0.0812521 0.0164131 0.996558 58 76 104
0.00568906 0.0430539 0.0403589 0.168886 -0.193051 0.966545 141 54 38
0.0556134 -0.00578666 -0.0311751 -0.0436296 -0.0178661 0.998888 160 150 56
0.00758536 0.0666722 0.0425679 -0.0175224 -0.0244127 0.999548 143 54 38
-0.00834914 0.0385197 0.0411889 -0.0324022 -0.153543 0.987611 141 58 42
-0.0352821 -0.0354465 -0.00780108 -0.23657 -0.052121 0.970215 141 134 56
-0.0328299 0.0149646 -0.0056261 0.0329748 0.408481 0.912171 116 117 56
-0.0104155 0.0103974 0.0378599 -0.0851134 -0.0914833 0.992163 52 86 156
0.0521937 -0.012505 -0.0308461 0.234682 -0.167177 0.957589 147 128 48
0.00240926 0.0833279 0.0447639 0.400837 -0.227712 0.887399 142 55 40
0.0187538 0.0783881 0.0433929 -0.129081 -0.100837 0.986494 137 53 38
0.0114108 0.0531853 0.0414649 -0.267573 -0.131677 0.954498 132 50 36
-5.99418e-05 0.0531424 0.0422929 0.183187 -0.0837508 0.979504 144 55 40
-0.0203251 -0.101573 -0.0328232 0.0824268 -0.0661214 0.994401 171 160 64
-0.0266759 -0.0666769 -0.0295321 -0.221655 0.115428 0.968269 169 155 60
-0.000840642 0.0123607 0.0361849 0.115125 -0.150935 0.981817 56 83 163
-0.000524543 -0.0307818 0.0291289 0.0133471 -0.316565 0.948477 57 87 175
-0.0320307 0.0260012 -0.00749006 0.0666119 -0.112266 0.991443 154 150 63
-0.0110966 0.0505653 0.0422929 -0.022447 -0.0692506 0.997347 145 61 42
0.0575605 -0.031592 -0.0384761 0.515377 -0.135335 0.846209 101 93 53
-0.019396 0.0722884 -0.0328232 -0.507832 0.177991 0.842868 145 133 54
0.0437339 -0.0101184 -0.0301891 -0.20426 0.0682638 0.976534 147 133 56
0.00887996 0.0132809 0.0370239 0.655206 0.0847998 0.750676 56 75 137
-0.0521225 0.0134233 -0.0150281 -0.770392 -0.162294 0.616569 67 70 76
0.0448919 0.000824476 -0.0338161 -0.414887 0.528233 0.740837 86 80 39
-0.0267229 -0.0718356 -0.0288771 -0.175622 0.127415 0.976177 149 137 53
0.0676921 0.0264577 -0.0534551 -0.218348 0.935834 0.276656 18 19 18
-0.050605 0.00429343 -0.0137621 -0.510417 0.0424843 0.858877 60 57 51
0.0659939 0.00395658 -0.0348101 0.518828 0.320723 0.792436 131 120 48
-0.0298829 -0.00321406 -0.00377109 -0.279805 -0.101241 0.954704 180 162 65
0.0625242 -0.00395046 -0.0318331 0.227689 -0.030828 0.973246 156 142 53
0.0579936 -0.0194979 -0.0338161 0.169525 -0.300068 0.938733 166 155 62
-0.0198138 0.0749083 -0.0328232 -0.4681 0.0174589 0.883503 129 124 51
-0.0143588 -0.0325059 0.0308339 -0.179759 -0.0830375 0.9802 68 82 156
0.0190579 0.0517426 0.0403589 -0.0602407 0.182588 0.981342 133 52 38
0.0115694 0.077285 0.0436679 -0.103158 -0.102498 0.98937 143 53 38
0.0505685 -0.0338695 -0.0361401 0.424115 0.464962 0.777134 69 64 67
-0.0333162 0.0230641 -0.00811311 0.0179525 -0.0803049 0.996609 140 135 60
0.0645656 -0.00484111 -0.0331541 0.183211 0.108959 0.977017 165 150 57
-0.000498543 -0.0630008 -0.0282231 0.317189 -0.0909659 0.943989 165 152 60
-0.0114887 0.00680663 0.0373029 -0.147617 -0.143361 0.9786 50 89 163
0.0583126 0.00595893 -0.0324931 0.16197 0.178173 0.970577 119 112 45
0.000658257 0.0789728 0.0447639 0.262343 -0.148432 0.95349 133 53 37
-0.00123494 -0.0924511 -0.0388111 0.869039 -0.0787711 0.488433 143 140 59
-0.0199329 0.0644389 -0.0308461 -0.249953 -0.106484 0.962385 145 135 54
0.0448486 0.00148287 -0.0348101 -0.57207 0.565999 0.593617 86 79 38
-0.0418996 -0.0325646 -0.00936206 -0.707305 -0.156245 0.689425 122 122 62
0.00184536 0.0866516 0.0458579 0.505778 -0.180963 0.84347 139 52 38
0.0405219 -0.0178558 -0.0305171 0.373721 -0.193668 0.907097 150 136 57
0.00623346 0.0447801 0.0403589 0.0943739 -0.182287 0.978706 140 56 40
0.0652963 0.010875 -0.0394811 0.365922 0.460778 0.80857 98 95 42
-0.0104895 0.0263042 0.0392509 -0.0543495 -0.156954 0.986109 141 60 41
-0.0292946 -0.0235785 -0.00593611 -0.288619 0.0891529 0.953284 84 89 42
0.00430196 0.0868519 0.0444899 0.404656 -0.116648 0.906999 139 53 40
0.00209166 0.0298355 0.0386949 0.1132 -0.137755 0.983976 138 52 39
0.0608556 0.00107144 -0.0321631 0.167484 0.196058 0.966183 146 132 51
-0.0110301 0.019406 0.0381389 -0.156409 -0.0839572 0.984118 129 60 46
-0.00608084 0.0447708 0.0420169 0.00465248 -0.124907 0.992157 129 53 39
-0.0135248 -0.0220369 0.0322488 0.174688 -0.0898427 0.980516 48 87 180
0.0668392 -0.0177056 -0.0358071 0.100829 -0.628726 0.771062 173 157 60
-0.0110088 -0.0981848 -0.0324931 0.102925 -0.000233146 0.994689 165 157 65
-0.000743542 0.0522658 0.0425679 0.15689 -0.0547922 0.986095 143 55 39
0.00493186 0.0174644 0.0364649 0.00647553 0.100221 0.994944 132 53 43
0.0100605 0.0366868 0.0378599 0.596238 -0.300918 0.744277 137 50 35
-0.00171404 0.0935157 0.0466759 -0.748534 -0.0696766 0.659426 78 37 27
0.0623997 0.00295306 -0.0328232 0.375459 0.171862 0.910766 139 126 50
0.0475997 -0.0120974 -0.0298601 0.0694546 -0.118394 0.990535 132 121 50
-0.00165414 0.0377291 0.0400829 0.166868 -0.17198 0.970864 142 55 40
0.010812 -0.00358021 0.0342219 0.541188 -0.0896186 0.836113 50 91 196
0.0597684 -0.00349575 -0.0318331 0.180997 0.0335279 0.982912 161 148 56
-0.0136303 -0.000459304 0.0359049 0.123099 -0.12848 0.984042 53 92 178
-0.0226226 -0.0639536 -0.0285501 -0.358041 0.182322 0.915732 180 162 63
-0.01677 -0.0330504 0.0302669 -0.110111 -0.217351 0.969863 72 90 166
-0.0119595 0.02008 0.0381389 -0.165637 -0.116518 0.979279 141 60 46
-0.0141284 -0.0611277 -0.0265921 -0.322522 0.0709938 0.943896 185 175 67
0.0146037 0.0536945 0.0414649 0.408868 0.0125212 0.912508 134 53 38
-0.00124524 0.0352222 0.0395279 0.0818641 -0.134219 0.987565 144 56 40
0.069438 0.0159192 -0.0442031 0.10062 0.338602 0.935534 71 69 34
0.0196598 0.0882539 0.0428429 0.0831363 0.361674 0.928591 116 48 36
-0.00489214 0.00162271 0.0353449 0.216111 -0.192927 0.957118 51 94 200
-0.0517117 -0.00616841 -0.0166151 -0.616098 0.129361 0.776974 68 68 78
0.0747389 0.0256858 -0.0493191 -0.0889192 0.340969 0.93586 13 14 16
-0.00965704 0.041587 0.0411889 -0.159976 -0.0622549 0.985156 143 60 43
-0.000586042 0.0362033 0.0398049 0.0422174 -0.0953028 0.994553 142 56 41
0.0167289 0.0612079 0.0403589 0.206862 -0.139004 0.968445 139 53 40
0.0137872 0.0536139 0.0417409 0.118608 -0.0100123 0.992891 135 52 37
-0.0279559 0.0221792 -0.00811311 0.0521618 0.0728948 0.995975 144 136 55
-0.0261784 -0.0374064 -0.00438806 -0.392179 0.0792308 0.91647 148 132 58
