ply
format ascii 1.0
comment VCGLIB generated
element vertex 673
property float x
property float y
property float z
property float nx
property float ny
property float nz
property uchar red
property uchar green
property uchar blue
element face 0
property list uchar int vertex_indices
end_header
-0.0422235 0.0993158 -0.0350463 -0.49698 -0.169792 0.850989 66 69 47
-0.0397959 -0.0697732 -0.0383919 -0.261016 -0.0650317 0.963141 82 76 41
-0.022071 -0.0131438 0.00416461 -0.149034 -0.927451 0.342962 31 30 26
0.0926904 0.00987851 0.0203545 0.693318 -0.536511 0.481108 131 90 51
-0.039553 0.0884154 -0.0281905 -0.353448 0.36922 0.859506 146 140 65
-0.0329828 0.0728892 -0.0208425 -0.280724 -0.118286 0.952472 185 174 77
-0.0176841 -0.0566295 -0.03432 0.0935305 0.05096 0.994311 251 227 116
-0.0343985 0.0634792 -0.0192716 -0.233917 0.301145 0.924443 162 142 71
-0.00772249 -0.0410369 -0.0267717 -0.15902 -0.872003 0.46295 184 178 88
-0.0291085 0.0664498 -0.0192775 0.0370858 0.116241 0.992528 185 175 78
-0.0116184 -0.0424332 -0.0287463 0.143368 -0.617995 0.772999 209 190 86
-0.0205257 -0.0141399 -0.00133913 -0.0631205 -0.897227 0.437035 66 58 40
-0.0537887 -0.020786 -0.014043 -0.184219 -0.178715 0.966501 127 121 62
-0.052377 0.0542752 -0.0126121 -0.360314 0.360407 0.860395 41 44 44
-0.0203387 -0.0414141 -0.0297674 -0.332416 -0.824308 0.458275 204 187 85
-0.021632 -0.0375512 -0.0232348 -0.245413 -0.925285 0.289171 197 174 76
-0.0135078 0.0145091 0.042263 -0.0178921 -0.382089 0.923952 54 103 250
-0.0430486 -0.0642841 -0.0390729 -0.292992 0.127771 0.947539 131 130 63
0.00762251 0.021794 0.046572 -0.177369 -0.818066 0.54709 83 103 254
-0.0193561 0.0189169 0.0476226 0.0427744 -0.391468 0.919197 63 114 255
-0.0423233 0.00140278 0.00621911 -0.584167 0.0540745 0.80983 47 75 174
0.0788424 0.0182944 0.0362141 0.348649 0.182808 0.919252 188 73 56
0.0148183 -0.00258687 0.0335174 -0.517488 -0.0636814 0.853317 127 74 87
-0.0493893 0.0342314 0.00392322 0.0446718 0.064051 0.996946 132 124 65
-0.0148822 -0.0584103 -0.0338728 0.185281 0.158661 0.969793 240 211 100
0.00618371 0.0255078 0.0501959 -0.770097 -0.171706 0.614384 158 166 90
0.0930094 0.00528028 0.019845 0.539743 -0.162238 0.826049 155 117 61
-0.0149564 0.0824523 -0.0214375 0.127049 0.0445062 0.990897 240 216 90
-0.00664459 0.00243038 0.0404301 0.410736 -0.140846 0.90081 63 115 255
0.0280964 -0.000399474 0.0382448 0.072652 -0.0938473 0.992932 176 68 52
-0.00720219 -0.00241577 0.0388325 0.0933464 -0.317522 0.943645 59 110 255
-0.0460581 -0.0101909 0.00126827 -0.590935 -0.503645 0.630189 24 25 23
-0.0247593 -0.000399974 0.037548 -0.309709 0.151445 0.938693 59 109 255
0.0575763 0.00547145 0.0376632 0.10479 -0.395285 0.912562 184 69 53
-0.0117226 0.0125466 0.0415381 -0.00714137 -0.384799 0.922973 58 109 255
0.0814014 0.0167279 0.0362015 0.180248 0.29074 0.939671 183 73 54
-0.0138764 0.00527689 0.0397933 -0.0638573 -0.130966 0.989328 55 103 254
0.00313711 0.00911564 0.0364113 0.527147 -0.337387 0.779927 61 111 255
-0.0297584 -0.0517706 -0.0350048 -0.19019 0.27233 0.94322 209 194 84
0.0770584 -0.00894557 -0.0637903 0.187393 -0.658229 0.729122 79 77 45
-0.000601388 -0.0263197 -0.0152406 0.140869 -0.28891 0.946936 144 145 75
-0.0290194 0.0453272 -0.00621434 0.0647794 -0.194057 0.978849 180 168 86
0.0392799 0.0194051 0.0391213 -0.165619 0.292938 0.941678 179 71 56
0.0735774 0.0197709 0.0375203 0.122711 0.31698 0.94046 191 73 57
0.0175281 0.00401562 0.0353082 -0.50526 -0.218749 0.834782 181 73 58
0.044763 -0.00262337 0.0380172 0.211071 -0.181967 0.960384 175 68 55
-0.0165719 0.0163728 0.0438242 -0.136168 -0.873432 0.467519 58 107 254
0.0452267 0.0180024 0.039716 -0.0912502 0.128723 0.987473 182 70 53
-0.0442743 -0.0300891 -0.0178144 -0.405379 -0.824393 0.395024 55 55 34
0.0375378 0.0236732 0.0361965 0.118225 0.55141 0.825815 179 72 56
0.0535572 0.0211904 0.0395057 -0.000736309 0.156562 0.987668 184 73 57
-0.0405029 -0.0352918 -0.0256503 -0.249915 -0.717925 0.649712 117 116 60
-0.0175389 0.0682911 -0.0199327 -0.0131485 0.314583 0.949139 239 213 94
0.0227324 0.00706226 0.0395463 0.0266261 -0.148527 0.98855 177 66 52
-0.0148257 -0.0366026 -0.0205 -0.185004 -0.477887 0.858719 96 88 48
0.00205361 0.00458873 0.0363731 0.335357 -0.0502778 0.940749 63 116 255
-0.0101933 -0.0622257 -0.035203 0.590555 -0.347296 0.728444 215 183 86
-0.0253824 -0.00690717 0.0372282 -0.220559 -0.402331 0.888529 59 111 255
0.0506728 0.00348613 0.0377248 0.10642 -0.311045 0.944418 191 71 55
-0.0164768 -0.0334953 -0.0175403 -0.377246 -0.832946 0.404829 80 85 46
-0.0339496 -0.0782726 -0.0385531 0.134185 -0.487398 0.862808 167 162 74
-0.0326576 0.0677356 -0.0200744 -0.187173 0.335078 0.923412 178 167 77
0.028605 -0.00929207 0.0364751 -0.0921657 -0.142225 0.985534 175 75 57
-0.0143425 -0.0449638 -0.0329773 -0.190003 -0.688546 0.699859 237 220 101
-0.00899929 -0.0375493 -0.0184941 0.263489 -0.680572 0.683664 122 109 61
0.0234377 0.021483 0.042028 0.423278 -0.229332 0.876494 177 70 58
-0.00793079 0.0767958 -0.0257696 0.718782 -0.338078 0.607499 236 214 90
-0.00308799 0.0162245 0.0443699 -0.0905444 -0.451017 0.887911 58 106 255
-0.0400601 0.0293426 0.00340287 0.0569779 0.4217 0.904943 60 106 250
-0.0352767 -0.028551 -0.0156884 -0.146115 -0.659252 0.737589 85 92 49
-0.0460848 -0.0399148 -0.0401051 -0.780084 -0.15245 0.606818 97 98 54
-0.00837669 -0.00655317 0.0372076 0.0181727 -0.305166 0.952126 65 114 254
0.00444401 0.00207879 0.034862 0.478642 0.0339652 0.877353 62 117 255
0.0456005 -0.000678574 0.0378483 0.127254 -0.176042 0.976123 168 63 49
0.0614005 -0.0176349 -0.0711324 0.151593 -0.639329 0.753842 25 25 27
-0.0497289 0.0225029 0.00430594 0.198568 -0.14316 0.969575 158 77 54
-0.0200178 0.0252157 0.0487583 -0.304412 -0.159063 0.939166 144 94 73
-0.0422579 0.0104684 0.00560816 -0.620017 0.0214516 0.784295 29 43 76
-0.0444092 -0.00509977 0.00549267 -0.693988 0.0490079 0.718317 32 26 26
-0.010182 0.00801618 0.040607 -0.0253519 -0.171648 0.984832 59 108 255
-0.00810449 0.0241776 0.0482803 0.250437 -0.485763 0.837446 156 73 77
0.0478868 0.00238439 0.0379268 0.141951 -0.220691 0.964959 189 71 55
-0.0433326 0.0148551 0.00494418 -0.0863161 0.00204951 0.996266 35 52 102
0.00775561 -0.00399757 0.0311705 0.2725 -0.153312 0.949863 66 113 229
-0.0282837 -0.0784132 -0.0411208 0.382216 -0.822197 0.421785 195 187 82
0.00911021 -0.0112977 0.0304074 0.193511 -0.239888 0.951319 118 58 41
-0.0492362 0.037242 0.00287517 0.0858092 0.464216 0.881556 169 160 79
-0.0146701 -0.0434432 -0.0294404 -0.224545 -0.789783 0.570809 214 192 93
-0.0174948 -0.00325117 0.0381889 -0.0592804 -0.145605 0.987565 60 111 255
-0.0422438 0.0272141 0.00448456 -0.236032 0.0757005 0.968792 47 77 166
-0.0136575 0.073345 -0.0217614 0.179058 0.295359 0.938457 252 227 93
0.0691288 -0.00532997 -0.0537608 0.441635 -0.564067 0.697702 45 42 30
0.0925234 -0.00345637 -0.0686939 0.519955 -0.760456 0.389042 172 166 74
-0.0189259 -0.0120656 0.0309523 -0.0427191 -0.90054 0.43267 137 60 47
-0.0330003 0.0882782 -0.0275966 0.0214734 0.301713 0.953157 182 170 75
-0.0140448 -0.0761251 -0.0410006 0.133968 -0.506405 0.851825 242 223 90
-0.000795189 -0.0126585 -0.00404987 -0.128632 -0.67777 0.723935 54 46 35
0.0137866 0.00176325 0.0324844 -0.530679 0.104097 0.841156 160 72 69
-0.0161974 -0.0708111 -0.0366428 0.546463 -0.575374 0.608542 239 217 94
-0.0194052 -0.0593145 -0.0345173 -0.0182562 0.0867924 0.996059 243 207 102
-0.0212533 -0.0757137 -0.0393083 -0.0302091 -0.733236 0.679303 244 227 94
-0.0312925 -0.0256925 -0.0143095 -0.0227447 0.0706009 0.997245 148 150 76
-0.0211214 -0.0121812 0.0294665 -0.219642 -0.930724 0.29242 126 58 45
-0.0415453 -0.0317598 -0.0178279 -0.142512 -0.837261 0.527905 38 38 27
0.0438113 -0.00561137 0.0370924 0.103493 -0.283096 0.953491 184 79 61
-0.0398182 0.0338561 0.00182859 -0.16993 0.274969 0.946317 66 108 251
-0.0459919 -0.0283318 -0.0152106 -0.618661 -0.446142 0.646696 125 130 61
0.0483234 -0.0140903 -0.0611735 0.105269 -0.882642 0.458106 87 88 52
0.0187852 -0.00467557 0.0350485 -0.272444 -0.202703 0.940577 179 72 58
-0.0214813 0.0557855 -0.0115455 0.27431 0.529277 0.802882 221 199 89
0.00667511 0.010728 0.0365318 -0.124894 -0.739809 0.661123 67 118 255
-0.0174055 0.0233389 0.0499065 0.0656854 -0.466986 0.881822 134 76 125
-0.00365819 -0.065942 -0.0426254 0.234483 0.70366 0.670731 113 114 66
-0.0169746 0.0504429 -0.0113944 0.248325 -0.0511886 0.967323 200 184 87
-0.0257699 -0.0275094 -0.01488 0.131822 -0.215509 0.967563 183 180 85
-0.0211472 0.00823107 0.0387595 -0.134435 -0.300408 0.944289 56 107 255
0.0153211 -0.00466097 0.0336334 -0.376695 -0.0829928 0.922612 154 74 68
0.0172457 0.0248469 0.046307 0.441699 -0.132154 0.887376 146 125 76
0.00412771 -0.0285958 -0.0166187 0.0624494 0.0135003 0.997957 167 167 85
0.0714464 0.010459 0.0386297 0.0735556 -0.0829766 0.993833 197 74 57
-0.0484248 -0.0309865 -0.021998 -0.630387 -0.657608 0.41251 49 50 32
0.0715164 -0.0130392 -0.0661276 -0.0276699 -0.864354 0.502122 61 60 44
-0.00829379 -0.0624169 -0.0394101 0.816346 -0.337041 0.469023 197 178 82
-0.0507869 0.0117357 0.00381611 -0.0993361 -0.323377 0.941042 149 74 54
-0.0422041 -0.0206486 -0.0132713 -0.0284254 -0.710536 0.703086 152 162 82
-0.0157576 -0.0246838 -0.00943284 -0.136537 -0.240472 0.961005 184 186 97
-0.0181091 0.094009 -0.0282228 -0.124344 0.466615 0.875676 217 201 88
-0.0176718 0.0137362 0.0417318 0.00111888 -0.292699 0.956204 55 104 254
-0.033738 -0.0357764 -0.0227974 -0.0438944 -0.933377 0.356203 161 152 65
-0.0201901 0.0716399 -0.0209093 0.036858 -0.0105428 0.999265 223 207 92
0.00600911 0.0246232 0.0487442 -0.640478 -0.430417 0.636026 153 123 82
0.0460497 0.00435856 0.0386559 0.012755 -0.181203 0.983363 186 70 56
-0.00277679 0.0080429 0.0402648 0.295515 -0.159817 0.941875 56 106 255
0.00880231 0.0108047 0.0379907 -0.0140567 -0.755476 0.655025 66 116 255
0.0188673 -0.0148882 -0.0182154 0.225307 -0.0242475 0.973986 195 176 83
-0.0104221 0.0517432 -0.0109231 0.102431 0.183759 0.97762 210 194 88
0.012339 -0.0295481 -0.0226652 0.515481 -0.267053 0.814225 45 49 38
-0.0235734 -0.0110741 0.0314973 -0.0265827 -0.870217 0.49195 126 57 58
0.0853454 0.0153625 0.0349458 0.35879 -0.163067 0.919064 160 64 45
-0.0261475 -0.0358795 -0.0187008 -0.11376 -0.745266 0.656991 83 71 41
0.021584 -0.0213535 -0.0254164 0.821892 -0.339946 0.457089 168 149 77
-0.0312821 0.0509105 -0.0056324 -0.232611 0.194271 0.952969 188 173 85
-0.0472417 0.0062438 0.00233588 -0.539976 -0.43452 0.720845 86 41 43
0.00528561 0.00403307 0.0346922 0.576558 -0.101023 0.810786 64 117 255
-0.0263551 -0.0401954 -0.0331994 0.0656429 -0.634457 0.770166 217 198 86
0.0538809 -0.0107434 -0.0555082 0.17916 -0.813379 0.553459 80 77 45
0.0125314 -0.0108214 0.0298208 0.101991 -0.664598 0.740208 116 57 40
0.00704211 0.0124601 0.0399055 0.0128645 -0.566497 0.823964 65 116 255
0.00123701 0.0249094 0.0470387 0.162698 -0.225079 0.96066 140 77 69
-0.031506 -0.0561534 -0.0337166 0.0377125 0.253886 0.966499 197 187 81
-0.048518 -0.0210896 -0.0116427 -0.325574 -0.480941 0.814062 166 157 79
0.0263602 0.0100019 0.0395706 0.0599143 -0.233211 0.970579 186 71 55
-0.0440274 0.0343378 0.00156894 0.328339 0.457509 0.826365 184 175 114
0.0804694 -0.0141513 -0.0717589 0.323472 -0.276264 0.905011 33 36 31
-0.00251559 -0.0431736 -0.0331865 0.066004 -0.931382 0.358011 175 170 83
0.00952361 -0.0166043 -0.0159201 0.418891 -0.179443 0.890129 157 155 78
0.0176681 -0.00187577 0.0349121 -0.344335 -0.0873275 0.934777 163 67 56
0.0141174 0.0106505 0.0365857 -0.0504195 -0.854257 0.517401 172 71 64
-0.00241269 -0.00765277 0.0366151 0.162639 -0.273727 0.947957 64 112 236
0.0216227 0.0029562 0.0379277 -0.508223 -0.360093 0.782331 184 71 57
-0.0494548 0.025162 0.00453442 0.145356 -0.103659 0.983934 170 96 63
-0.0454285 -0.0754699 -0.0451955 -0.568141 -0.408769 0.714229 47 50 37
-0.0421206 -0.0183183 -0.00778311 -0.0344358 -0.268025 0.962796 193 193 89
0.0340557 -0.00149297 0.0376546 -0.119357 -0.0651961 0.990709 169 64 54
-0.0431943 -0.0198855 -0.00979371 -0.0117709 -0.907683 0.419491 179 183 92
-0.0387445 -0.0741893 -0.0386065 -0.325674 -0.146728 0.934027 128 125 61
0.0129137 0.0166912 0.0416756 -0.161979 -0.515757 0.841283 62 92 196
-0.0157755 0.0166614 0.0449238 -0.117748 -0.904042 0.410907 60 109 255
0.057325 0.0180746 0.0399276 0.01868 0.126242 0.991824 188 72 55
-0.0255079 0.0668484 -0.0194697 -0.0985282 0.303897 0.947596 202 184 83
-0.0193515 -0.0673365 -0.0339819 0.0793366 -0.042962 0.995922 56 57 50
-0.0254553 0.0551247 -0.00788882 0.244944 0.645232 0.723656 203 193 88
-0.0260552 -0.0805675 -0.0476222 -0.119178 -0.855359 0.50414 214 204 87
0.0447285 0.0200569 0.0396011 -0.0224703 0.124826 0.991924 183 72 54
-0.0350988 -0.0358334 -0.0218401 -0.042875 -0.910654 0.410939 158 151 67
-0.0131511 0.020062 0.0484068 0.227793 -0.568299 0.790662 62 114 255
-0.00697669 -0.0718262 -0.0402252 0.16914 -0.243699 0.954988 208 194 84
0.0434711 -0.00933467 0.0361858 -0.0921165 -0.142576 0.985488 170 73 51
-0.00125049 -0.0368912 -0.0219915 -0.0858926 -0.356544 0.930322 145 136 71
0.0645628 0.00847987 0.0386918 0.218337 -0.141725 0.965527 192 73 54
0.00169281 -0.00646827 0.0355616 0.474835 -0.374167 0.796575 65 113 229
-0.0259338 -0.0674917 -0.0336689 -0.0307336 -0.0578001 0.997855 80 88 55
-0.0125808 0.0785195 -0.0230337 0.450065 -0.182142 0.874223 251 223 92
-0.0179827 -0.0152916 -0.00351029 -0.0878713 -0.892086 0.44324 125 117 67
0.0574915 0.0121363 0.0399321 0.0547433 -0.189843 0.980287 176 67 55
-0.0445075 -0.0157496 -0.00569012 0.225453 -0.806475 0.546597 194 170 74
-0.0439455 0.0375945 -0.000340342 -0.234885 0.427708 0.872866 194 178 98
-0.0453165 0.0173372 0.0040298 0.0433688 -0.136049 0.989752 57 49 89
-0.00358299 0.0130766 0.0415158 0.172024 -0.489397 0.854926 59 108 255
-0.0396461 0.0735634 -0.0232151 -0.298909 0.278845 0.912633 142 135 66
-0.036273 -0.0303393 -0.016842 0.0985324 -0.775786 0.623256 58 57 32
0.0285314 0.0118272 0.0393484 0.0731187 -0.0833535 0.993834 183 69 54
0.00122681 -0.00459327 0.0362426 0.323234 -0.228186 0.918396 67 113 244
-0.00843969 -0.0440245 -0.0333116 0.444944 -0.700709 0.557702 198 186 88
-0.0350172 -0.0275078 -0.0140166 -0.224264 -0.467345 0.855158 104 121 63
-0.03996 0.0162817 0.00886831 -0.768332 -0.256461 0.586425 43 79 196
0.0392568 0.00370782 0.0386235 -0.00952347 -0.162019 0.986742 186 71 55
-0.000334488 0.0864283 -0.0320821 0.71462 -0.384608 0.58429 208 194 83
-0.0159373 0.094682 -0.0288103 -0.0701326 0.416613 0.906375 202 193 88
-0.0123767 0.0541589 -0.011425 0.282059 0.332841 0.899811 224 204 88
0.0658253 -0.00956437 -0.0594361 0.0804257 -0.975657 0.204022 75 76 43
0.0755524 0.000559826 -0.0567927 -0.00414611 -0.253626 0.967293 32 32 25
-0.0183532 -0.0715756 -0.0351159 0.455272 -0.504456 0.733656 250 228 103
-0.0425236 0.0625671 -0.0205877 -0.506696 0.192636 0.840328 110 105 61
-0.0312078 -0.00282907 0.0364364 0.0833761 -0.199573 0.976329 61 110 254
0.0133648 0.0102479 0.0358652 0.052125 -0.786806 0.614995 155 71 73
-0.0247201 -0.0137744 -0.00117085 -0.483049 -0.556126 0.676304 53 47 38
-0.014069 0.084513 -0.0216165 0.0650404 0.234932 0.969833 245 223 92
-0.0465404 -0.00813987 0.00157672 -0.646118 -0.363298 0.671227 48 36 28
-0.0126017 0.0161305 0.043272 0.0436146 -0.73102 0.68096 57 105 254
0.0902364 0.00594061 0.023532 0.856602 -0.182738 0.482535 165 69 51
-0.00993809 0.0158984 0.0431652 -0.00260941 -0.699183 0.714938 58 106 255
0.00444461 0.00920622 0.0355615 0.335322 -0.310532 0.889454 62 114 255
-0.0295 -0.0798806 -0.0451632 0.32044 -0.891356 0.320627 193 187 79
0.0692305 -0.00408137 -0.0529151 0.521708 -0.306717 0.796081 35 33 27
-0.044128 -0.0367288 -0.0312526 -0.22089 -0.960318 0.170286 101 99 55
-0.0119913 -0.0707307 -0.0396056 0.42723 -0.15475 0.890801 224 205 87
-0.028557 -0.0173743 -0.00846985 -0.192179 -0.362652 0.911894 116 120 66
-0.0240756 -0.0756837 -0.0377951 0.148802 -0.922388 0.356453 227 210 87
-0.0494632 -0.0660547 -0.0423716 -0.792825 -0.0122791 0.609325 67 70 42
0.0102065 0.000340926 0.0315589 0.275468 0.0166837 0.961165 66 107 237
0.0130839 -0.0159097 -0.0174437 0.244611 -0.081501 0.96619 153 151 78
-0.0229834 -0.0424984 -0.034111 -0.187076 -0.481941 0.856 208 189 86
-0.00387329 0.0615317 -0.020544 0.473329 0.558076 0.681551 208 180 83
-0.0298398 -0.0691149 -0.034753 -0.193034 -0.361738 0.912077 108 98 47
0.00576891 -0.0257903 -0.0173217 0.38874 0.229629 0.892273 166 160 81
-0.00706789 -0.00117747 0.0391337 0.0997072 -0.248175 0.96357 59 111 255
-0.0135636 0.0748994 -0.0223084 0.223671 0.239392 0.944808 247 223 95
0.0223671 0.00336386 0.0386451 -0.219121 -0.286661 0.932637 186 71 57
0.00355191 0.02071 0.0472139 0.0072858 -0.164772 0.986305 65 114 255
0.0218593 -0.00138307 0.036646 -0.429573 -0.243621 0.869549 170 65 51
0.055355 -0.010767 -0.0560449 0.143052 -0.806441 0.57375 81 78 45
-0.0338794 0.0976932 -0.0304058 -0.0186021 0.457323 0.889106 155 151 75
-0.00786269 0.0162833 0.0434298 -0.0456121 -0.663628 0.74667 57 105 254
-0.0351736 -0.0548641 -0.035006 -0.017469 0.0996094 0.994873 187 174 74
0.0906964 -0.00642057 0.0191254 -0.576245 -0.130106 0.806854 199 187 81
-0.0398009 -0.0415025 -0.0347743 -0.13836 -0.31473 0.939043 145 138 66
0.0610747 -0.000755074 0.0348014 0.217369 -0.222535 0.950384 175 69 55
-0.0210739 -0.0158612 -0.00590008 0.257335 -0.864945 0.430869 168 154 83
-0.0235677 -0.0371012 -0.0209516 0.174758 -0.848642 0.499266 168 143 67
-0.0165426 0.0197961 0.0481988 -0.140139 -0.281628 0.949235 59 111 255
0.0672399 0.00835014 0.0381901 0.0185593 -0.238657 0.970927 191 71 55
-0.0270557 0.0598672 -0.0141509 -0.116524 0.598577 0.792545 209 190 87
0.00292811 0.0215366 0.0468051 0.0164407 -0.0998023 0.994871 69 108 254
-0.0219953 -0.0123194 0.0275155 -0.0888028 -0.738524 0.668354 100 51 39
-0.0176077 -0.00459027 0.0382839 -0.0175003 -0.212139 0.977083 61 111 255
0.00376681 -0.0109253 -0.00139667 -0.194965 -0.944457 0.264554 31 28 24
-0.0317843 -0.0493235 -0.0355333 -0.0479318 0.0421936 0.997959 195 173 76
0.0393715 0.00494046 0.0389238 0.0290413 -0.142596 0.989355 181 68 54
-0.0352239 -0.0407039 -0.0336687 -0.348862 -0.292028 0.890514 183 170 78
-0.00559389 0.0175715 0.0451637 -0.0134731 -0.530258 0.847729 61 111 255
-0.0277749 -0.0268036 -0.0139592 0.0832414 -0.236365 0.968092 188 182 84
0.067682 -0.014314 -0.0687473 0.0371931 -0.869613 0.492331 32 33 30
0.0542552 -0.00160887 0.0355629 0.227562 -0.133908 0.964512 178 68 56
-0.0193337 0.00615202 0.0384249 -0.192768 -0.343823 0.919035 56 105 251
-0.0458244 -0.0794122 -0.0529413 -0.447904 -0.834059 0.322068 50 53 40
0.00040991 0.000486126 0.0375065 0.516461 0.0195841 0.856087 62 113 255
-0.0178274 -0.0376889 -0.0207327 -0.0961468 -0.32935 0.9393 136 117 56
0.00489731 -0.020382 -0.0158915 0.272736 -0.486958 0.829751 131 142 74
0.0528403 0.00511026 0.0382934 0.0240839 -0.294737 0.955275 186 71 53
0.00253751 0.00262169 0.0360907 0.445171 -0.0378426 0.894645 64 117 255
-0.00432499 -0.0338388 -0.0180758 -0.160032 -0.861491 0.481895 82 89 52
0.043539 -0.00127047 0.0383717 0.0671382 -0.157589 0.98522 169 64 51
-0.00279099 -0.0734355 -0.0416982 0.465162 -0.563717 0.68253 182 177 79
0.00863251 0.0147998 0.0404514 0.0953466 -0.32871 0.939606 57 103 252
0.0252713 -0.0142383 -0.0207505 0.576762 -0.769613 0.273936 112 102 58
0.0905704 0.000708226 0.0202637 0.00534201 0.190507 0.981671 183 76 58
0.0443114 -0.00757857 0.036811 0.0183904 -0.238145 0.971056 184 78 61
0.0222658 0.0223863 0.0439442 0.566692 -0.149127 0.810321 176 69 55
-0.00174459 0.0864084 -0.0315705 0.645215 -0.37967 0.662984 211 196 86
0.0173193 -0.0105588 0.0295831 -0.143088 -0.562312 0.814452 111 55 37
0.0449247 -0.00820927 0.0364344 -0.0627438 -0.175877 0.982411 177 78 60
-0.0491362 -0.00500877 0.00106225 -0.520631 0.238811 0.819703 147 72 51
-0.000685988 0.00317902 0.0377672 0.265809 0.213535 0.940079 64 117 255
0.0744504 0.0142211 0.0382394 0.0818033 0.101162 0.991501 146 56 44
-0.00292949 -0.0453586 -0.036668 0.39414 -0.668604 0.630573 190 183 89
0.0448756 -0.00128797 0.0379225 0.192859 -0.176795 0.965168 165 63 51
-0.0237456 0.0227391 0.0471853 -0.2392 -0.0670797 0.96865 83 95 236
-0.0429403 -0.054844 -0.0392485 -0.78425 -0.326279 0.527725 137 131 61
0.0344266 -0.0138935 -0.0525265 0.220293 -0.614682 0.757389 58 55 38
-0.0509352 0.0330838 0.00365184 0.222999 0.117426 0.96772 108 106 64
-0.0105695 -0.0489837 -0.0365312 0.0334588 -0.493035 0.869366 229 208 92
-1.65887e-05 -0.0121194 -0.00369513 -0.0139556 -0.805143 0.592917 42 36 31
-0.0289081 0.000351426 0.0361175 -0.0805516 -0.135276 0.987528 59 109 254
0.017756 -0.0249943 -0.0232195 0.419348 -0.285106 0.861894 107 111 63
-0.0314323 -0.0128389 -0.00562664 -0.0310191 -0.960602 0.276192 62 54 37
-0.0310797 0.0151104 0.04148 -0.422276 -0.585382 0.692107 53 100 246
-0.0232402 -0.0163789 -0.00576579 -0.015543 -0.933062 0.359381 186 169 82
-0.0362493 0.0997963 -0.0340076 -0.328286 0.618448 0.713968 138 134 69
-0.00480699 -0.0414645 -0.02598 -0.105072 -0.924768 0.365738 194 183 90
-0.0477104 -0.0650406 -0.0406611 -0.620533 0.104699 0.77716 94 94 49
-0.0454849 0.02364 0.00361487 -0.0861634 0.264596 0.960502 47 28 31
-0.0243534 -0.0767666 -0.0400203 0.144119 -0.891445 0.4296 227 210 88
-0.0146801 0.0679091 -0.019602 0.0279396 0.417338 0.908322 240 209 92
0.0569401 -0.00174327 0.0350577 0.157596 -0.22544 0.961426 179 71 57
-0.0279349 0.00912538 0.0378388 -0.128808 -0.424256 0.896334 60 111 255
-0.034794 0.0688998 -0.0209302 -0.191277 0.245957 0.95022 160 156 74
-0.00958339 -0.00519377 0.0375639 0.00784796 -0.336656 0.941595 60 113 255
0.0263309 -0.0157165 -0.02735 0.789769 -0.597466 0.138923 101 95 59
-0.0486312 0.054158 -0.0110496 -0.359526 0.58053 0.730566 112 104 67
0.0273935 0.0216751 0.0399024 0.41123 -0.0559366 0.909814 178 70 56
-0.0131551 -0.00671667 0.0370461 0.0265438 -0.278285 0.960132 63 113 255
-0.0264754 -0.065258 -0.0337938 0.0604833 0.0255201 0.997843 190 181 83
-0.0186532 0.0729319 -0.0210665 0.152248 0.0997077 0.9833 231 214 92
-0.0461273 -0.0654062 -0.0393187 -0.416673 0.148921 0.896776 103 102 53
-0.0349979 0.0659318 -0.0202834 -0.334835 0.227434 0.914417 152 145 72
-0.0295303 -0.0334346 -0.0187093 -0.585878 -0.60215 0.542367 52 52 31
0.0768814 -0.011375 -0.0660062 0.327981 -0.761089 0.559618 72 72 48
0.0730864 -0.0120023 -0.0648345 0.141504 -0.662245 0.735804 68 70 48
0.00276501 -0.0122644 -0.00423994 -0.0930584 -0.920364 0.379828 43 38 30
-0.0323001 -0.00624717 0.0287833 -0.66102 -0.676429 0.324802 60 108 254
-0.0309472 -0.0190103 -0.00954814 -0.189965 -0.576731 0.794541 145 154 74
0.0818514 -0.015666 -0.0722045 0.270653 -0.200787 0.941505 27 29 31
-0.040746 -0.0109128 0.00529395 -0.0168224 -0.845834 0.533181 26 27 24
-0.0536095 0.0179524 0.00478945 0.437716 -0.0762915 0.895871 107 72 55
-0.0151762 -0.0310228 -0.012945 0.275822 -0.562584 0.779372 160 167 81
-0.00329009 -0.0361725 -0.0210591 0.0854052 -0.589145 0.803501 100 91 55
0.0364683 0.00270714 0.03843 0.015486 -0.209694 0.977644 187 72 55
-0.00810679 -0.00406927 0.0378122 0.0929337 -0.477742 0.873571 63 112 255
0.0668349 0.0035241 0.0365905 0.0595714 -0.525818 0.848509 192 73 54
-0.0220391 0.0850551 -0.0230372 -0.390087 0.207745 0.897036 227 210 86
0.0496779 0.0231954 0.0383892 -0.122642 0.389456 0.912843 183 75 58
-0.00290239 -0.0339628 -0.0181329 0.223884 -0.714684 0.662648 68 71 44
0.0697523 -0.00198567 0.0337022 -0.0695777 -0.116001 0.990809 189 73 56
0.0346363 0.00478252 0.0387638 0.0370593 -0.257135 0.965665 182 69 54
-0.0178481 -0.0178835 -0.00763346 -0.0573047 -0.314002 0.947691 235 221 105
0.00668741 -0.0138296 0.0278994 -0.0360776 -0.963037 0.266941 29 27 26
0.0795114 -0.00598327 -0.0617259 0.28231 -0.781267 0.556707 85 82 43
-0.0362392 0.0805562 -0.0242801 -0.133327 0.552805 0.822575 163 156 72
-0.030269 0.0467228 -0.00582416 0.12315 -0.192332 0.973572 183 176 90
0.061677 0.00615011 0.0385933 -0.100685 -0.397725 0.911963 182 69 52
0.01783 0.024345 0.0455493 0.46079 -0.096242 0.882275 148 90 67
-0.0411812 0.0741023 -0.0245021 -0.433186 0.366769 0.823304 130 126 64
0.070259 -0.00984447 -0.0600946 0.234367 -0.916119 0.325266 81 80 43
-0.0223163 -0.034329 -0.0176565 -0.0221875 -0.740418 0.671781 68 66 36
0.0272356 -0.0137346 -0.027078 0.8538 -0.507304 0.116909 60 60 41
0.0826744 0.00788436 0.0367361 0.211851 0.0448239 0.976274 186 74 53
0.0626523 0.0176103 0.0397138 0.145141 -0.0826149 0.985956 186 73 55
0.0226297 -0.0181415 -0.0243464 0.676146 -0.604261 0.42154 181 168 86
0.0219817 -0.000144274 0.0369481 -0.419468 -0.222263 0.88014 175 68 50
-0.020838 -0.01885 -0.00829386 -0.152624 -0.334884 0.929816 153 159 80
0.0403912 0.0165186 0.0396508 -0.0518476 0.119945 0.991426 172 65 49
-0.0328495 -0.0527966 -0.0357089 -0.0990088 0.128613 0.98674 197 187 83
-0.0454505 -0.020213 -0.0105367 0.0768077 -0.890288 0.448875 203 201 125
0.00625191 0.0172716 0.0419428 0.181527 -0.498998 0.847377 59 109 254
0.0403306 -0.0140791 0.0350814 -0.0162755 -0.351678 0.935979 27 24 25
-0.0520652 0.00907762 0.00109947 -0.335244 -0.57048 0.749776 157 80 57
0.0638093 -0.0158035 -0.0703987 0.0560916 -0.674559 0.736087 25 25 27
-0.0339216 -0.014168 -0.00800646 0.170454 -0.67361 0.719162 127 118 63
-0.0252396 -0.0296964 -0.0147577 -0.220097 -0.143733 0.964831 174 172 82
0.0313412 -0.0109521 -0.0414654 0.515172 -0.825712 0.229776 52 50 38
-0.0396584 -0.0295982 -0.0154168 0.256762 -0.496249 0.829343 59 60 36
-0.0285209 0.013544 0.0414674 -0.225017 -0.494778 0.839382 54 102 245
0.0523541 -0.00808597 0.0356938 0.268755 -0.218577 0.93808 179 76 58
-0.0381687 -0.0130191 -0.00188119 -0.0500394 -0.955282 0.291431 43 41 34
-0.0303217 0.0848942 -0.0266078 -0.134066 0.46161 0.876894 195 182 81
0.0256634 -0.00450887 0.0370716 -0.29368 -0.340575 0.893174 181 75 59
-0.00946509 -0.0298251 -0.0145981 0.0595006 -0.49627 0.866127 171 173 84
-0.00439069 -0.0393161 -0.0225736 0.190584 -0.546819 0.815271 175 166 83
-0.0210724 -0.0257083 -0.0121588 -0.570723 -0.30992 0.760411 98 95 56
-0.048013 0.0428658 -0.00304835 -0.162387 0.371166 0.914257 125 129 73
0.0727764 -0.0163756 -0.0717397 -0.120836 -0.812085 0.570891 25 25 29
0.0628231 0.00387371 0.0367514 -0.0526742 -0.606354 0.793448 188 82 60
0.0190222 -0.00209197 0.0352569 -0.309068 -0.170581 0.935617 168 67 56
-0.0213664 -0.057037 -0.0341234 0.140979 -0.137309 0.980444 242 216 94
-0.0138037 0.0796391 -0.0217392 0.395444 -0.276984 0.87573 231 203 87
0.0409358 -0.00845277 -0.0471396 -0.055793 -0.628864 0.775511 52 49 34
-0.0501202 0.0184545 0.00417566 -0.215491 0.1439 0.965845 144 61 50
-0.0413607 -0.0201964 -0.0124674 0.0337143 -0.778179 0.627136 154 163 84
-0.0343335 -0.000722074 0.0372249 -0.309986 0.0102364 0.950686 57 106 251
0.0529712 -0.00871747 0.0353166 0.269192 -0.158308 0.949986 165 71 52
-0.000217689 0.0238104 0.0467972 0.0821013 -0.223647 0.971206 151 78 119
0.0321554 0.0147635 0.0393726 0.0694289 0.0415634 0.996721 156 62 50
-0.0201501 -0.00311597 0.0386931 0.0163889 -0.147218 0.988968 56 111 255
-7.2388e-05 0.00245158 0.0377877 0.366572 0.193677 0.910008 65 117 255
-0.00125179 -0.0121515 0.0297476 -0.000156828 -0.752879 0.658159 95 52 38
0.0775534 -0.0128235 -0.0697825 0.365561 -0.674761 0.641142 57 58 43
-0.0543281 -0.0108458 -0.0142463 -0.232562 -0.0355691 0.971931 57 60 37
0.0725704 -0.00898347 -0.0616803 0.51769 -0.691944 0.503201 83 80 44
-0.0480668 0.025041 0.00447873 0.272285 -0.0963405 0.957382 140 64 50
-0.0315176 0.0481171 -0.00543425 0.100606 -0.0568093 0.993303 199 187 88
-0.00928069 0.0605743 -0.0154478 0.188064 0.266548 0.945296 238 216 90
-0.0220697 -0.0175156 -0.00746409 -0.02151 -0.602318 0.797966 217 205 94
0.00435401 0.0127976 0.0396182 -0.106573 -0.662607 0.741346 62 114 255
-0.028631 -0.0766082 -0.0384467 0.116725 -0.697422 0.707091 184 179 77
-0.020036 0.0163157 0.0428288 0.0442304 -0.631294 0.774281 59 105 248
-0.0456604 0.0516175 -0.00800839 -0.395956 0.353506 0.847498 194 183 89
0.0558121 0.000750226 0.0361142 0.172411 -0.362831 0.915766 182 71 52
0.0311686 -0.0107696 0.0360647 -0.028867 -0.171679 0.98473 136 64 45
0.0467211 0.0118388 0.0400606 -0.0314857 -0.142688 0.989267 184 69 55
-0.029969 -0.0547496 -0.0343379 -0.127262 0.119281 0.984671 201 189 84
0.0805304 0.0222878 0.0354805 0.378571 0.267684 0.886019 181 110 71
0.00293741 -0.0111645 -0.00304259 -0.123782 -0.913313 0.387991 33 29 25
-0.0143335 0.0818243 -0.0218614 0.132012 0.019626 0.991054 234 213 89
0.0304345 0.0182695 0.0392166 0.291779 0.0643385 0.954319 167 65 54
0.0445374 -0.00509887 0.0374146 0.0982282 -0.227239 0.968872 186 77 60
0.0742544 -0.0166092 -0.0713084 -0.143505 -0.632342 0.761281 25 26 27
-0.0268606 0.0458432 -0.00634817 0.241962 -0.401346 0.883389 163 146 78
-0.0531242 0.00499211 -0.0045387 -0.575152 -0.795561 0.19048 131 77 55
-0.0223917 0.0225155 0.0475208 -0.327901 0.0465159 0.943566 75 97 243
0.0267585 -0.000282774 0.0382985 0.00493149 -0.153514 0.988134 177 68 51
-0.0304506 -0.0312046 -0.0152938 0.0791381 -0.621738 0.779217 69 75 42
0.0467737 0.00496717 0.0385818 0.0156536 -0.209737 0.977633 180 69 55
-0.0378303 -0.0517146 -0.0350951 -0.0257093 0.197123 0.980042 167 156 77
-0.000279989 -0.0740898 -0.0483013 0.781032 -0.446649 0.436456 153 151 76
0.0374643 -0.00131467 0.0382649 -0.065643 -0.00840067 0.997808 169 65 53
-0.0192653 -0.0398571 -0.0272182 -0.324575 -0.821723 0.468426 208 197 92
-0.0181397 -0.0205018 -0.00830711 -0.146939 -0.151343 0.977499 168 165 83
-0.0255841 -0.0781514 -0.0445241 -0.0515134 -0.920548 0.387219 219 206 84
-0.00668589 0.0150486 0.0426866 -0.128933 -0.562194 0.816893 57 105 253
0.0675132 -0.0164582 -0.0724615 0.0871388 -0.916286 0.390931 25 25 27
0.0290304 0.00976922 0.0394634 0.032476 -0.085777 0.995785 184 72 54
0.0386664 0.0202369 0.0387063 -0.240034 0.338752 0.909742 181 71 56
-0.0419818 0.0148439 0.00446346 0.0724275 0.0164425 0.997238 28 44 84
0.0366014 0.0199603 0.0380439 -0.16013 0.422327 0.892187 184 71 53
0.0837494 0.00364525 0.0322893 0.397889 -0.528393 0.74999 197 75 57
-0.0155723 -0.057542 -0.0343559 0.135296 0.373215 0.917827 249 218 105
-0.00144819 -0.0652447 -0.0437017 -0.0279631 0.71519 0.69837 123 122 74
-0.0189723 0.0780878 -0.0218351 -0.0643979 0.23743 0.969268 244 217 91
-0.00205249 0.00865176 0.0401907 0.242781 -0.232249 0.941869 60 110 255
-0.0454277 -0.0342289 -0.0250467 -0.0640013 -0.940926 0.332509 61 58 36
-0.00375549 -0.00753588 0.0366689 0.0573948 -0.256649 0.964799 67 111 240
0.0895814 -0.013232 -0.0732075 -0.0617834 -0.22352 0.972739 48 51 40
-0.0396694 0.00215233 0.0106332 -0.896163 0.0522815 0.440635 57 104 249
0.0715124 -0.00332657 -0.0540047 0.491789 -0.0819891 0.866846 33 32 26
-0.0258681 0.0992993 -0.0313262 0.0160873 0.259411 0.965633 177 168 79
0.0468969 0.0219874 0.0389851 -0.00436914 0.225597 0.974211 182 72 57
-0.00818069 -0.0549464 -0.0366986 0.220856 0.00527997 0.975292 218 193 88
-0.0235926 -0.0497241 -0.0335984 -0.0208228 0.121222 0.992407 230 204 89
0.000495911 -0.0104358 0.0331233 0.0851294 -0.890443 0.447062 132 62 59
-0.0457711 0.00590975 0.00313412 -0.512176 -0.23658 0.825655 47 39 56
-0.0344357 -0.0221312 -0.0130925 0.26537 -0.209436 0.941124 190 186 89
-0.0210315 -0.0816045 -0.0487248 0.000931324 -0.873773 0.486333 247 230 99
-0.0415856 0.00960777 0.00605351 -0.718073 -0.0128342 0.69585 29 46 92
-0.0160789 -0.0352351 -0.0196492 -0.209706 -0.580565 0.786745 68 63 36
-0.00694369 0.0177934 0.0448265 0.00986605 -0.573989 0.818803 62 111 255
-0.058032 0.0113869 0.00248695 -0.169466 -0.682391 0.711072 43 41 41
-0.0248203 -0.0256351 -0.0141733 -0.0188454 -0.314176 0.949178 180 171 80
0.0323055 -0.0132794 -0.0510676 0.608761 -0.511398 0.606533 51 50 37
-0.0256115 0.0576868 -0.0119136 -0.0746183 0.726356 0.683256 212 198 88
0.0577745 0.000106326 0.0352862 0.141411 -0.263463 0.954249 172 67 52
-0.0486929 0.043747 -0.00350097 -0.202962 0.26559 0.94248 140 144 75
-0.0444097 -0.0706162 -0.0395109 -0.33899 -0.437837 0.832697 48 46 33
-0.0355184 -0.015255 -0.00872436 0.209151 -0.805161 0.554952 144 142 78
-0.0184531 -0.0370041 -0.0203064 -0.0818865 -0.382749 0.920216 108 92 49
0.0840094 0.00776791 0.0366825 0.547484 -0.253497 0.797496 191 73 53
0.0864714 -0.0144621 -0.0729821 0.156371 -0.0156394 0.987574 32 33 32
-0.0280682 0.087131 -0.0277463 -0.0260787 0.508651 0.860578 116 112 60
0.0462868 -0.0129342 -0.0554827 0.0291676 -0.877352 0.478961 84 80 49
-0.0229298 -0.0505098 -0.0335762 -0.0168437 0.11165 0.993605 233 207 90
0.0408092 -0.00970027 -0.0479762 0.0955851 -0.715324 0.692225 61 57 38
-0.0142007 -0.0138919 -0.00207197 0.0531971 -0.625254 0.778606 64 57 38
-0.025583 -0.00795817 0.0361284 -0.343035 -0.635337 0.691863 60 110 254
0.0604041 -0.0120641 -0.0623402 0.168124 -0.826465 0.537298 67 66 45
-0.0292348 -0.0206348 -0.0125595 -0.0739386 -0.690568 0.719478 114 129 70
-0.00978979 0.0785521 -0.0240421 0.303318 -0.163372 0.93878 238 214 94
-0.0104103 0.0694955 -0.0216525 0.351855 0.408228 0.842347 245 219 94
-0.0332556 0.070193 -0.0210877 -0.237018 0.161473 0.957992 172 160 77
-0.0420808 -0.00509437 0.00748051 -0.568419 0.274286 0.775672 40 38 43
-0.0438894 0.0171054 0.00439949 -0.134308 -0.015697 0.990815 43 56 121
-0.00906259 -0.0813796 -0.0478783 0.00496955 -0.78504 0.619425 223 208 86
0.0209898 -0.00303677 0.035622 -0.339941 -0.238971 0.909579 174 70 56
-0.0550881 -0.0192456 -0.0140866 -0.54113 0.0140966 0.840821 58 62 37
0.0736104 0.00407422 0.0370199 -0.0961115 -0.419983 0.902428 192 73 57
0.04068 -0.0161926 -0.0616322 0.122634 -0.86377 0.488735 79 76 48
0.0381561 0.022729 0.0370097 -0.153825 0.53169 0.832853 182 71 56
-0.0397924 -0.0164899 -0.00758091 0.136217 -0.147303 0.979667 161 151 75
-0.000136489 -0.0338459 -0.0200327 0.503708 -0.649117 0.570022 59 61 41
-0.0400424 0.0694401 -0.0233598 -0.162261 0.140413 0.976706 131 127 67
-0.0387957 0.064384 -0.0208809 0.000545727 0.238225 0.97121 118 112 64
-0.0296903 -0.00567627 0.0337962 -0.670092 -0.636827 0.381352 61 109 255
0.0492814 -0.00464327 0.0363857 0.105681 -0.232421 0.966857 185 78 60
-0.0398216 0.000876626 0.0103105 -0.875763 0.0145138 0.482523 57 104 251
-0.017441 -0.031269 -0.0141347 -0.203802 -0.749309 0.63008 155 161 79
0.0768164 -0.00217617 -0.0580779 0.191851 -0.24204 0.95111 36 34 26
0.0613834 -0.00500967 0.0331129 0.130226 -0.326267 0.936264 180 75 59
-0.0211304 0.0774258 -0.021254 0.260783 0.368204 0.892423 239 212 91
0.00136631 0.026123 0.0473331 0.245303 -0.275966 0.929338 129 124 76
-0.0535768 0.0254106 0.00512641 0.166129 -0.212389 0.96296 43 43 38
-0.00519289 0.0632031 -0.0210328 0.588604 0.323834 0.740728 210 179 80
0.00123091 -0.0336958 -0.021433 0.387931 -0.587955 0.709802 64 66 45
0.0534978 0.0125891 0.0396988 0.070723 -0.151341 0.985948 169 64 55
-0.00607869 -0.0775534 -0.041271 0.435396 -0.271257 0.8584 208 195 85
0.0846004 -0.00947867 -0.0712949 0.311702 -0.62251 0.717861 86 86 50
-0.0216147 -0.0810248 -0.0473252 0.0356473 -0.815392 0.57781 241 223 95
-0.0320021 0.0937903 -0.0297859 0.182996 0.235375 0.954521 139 134 66
0.0433784 0.00459128 0.0387631 0.0348028 -0.200083 0.979161 182 69 54
-0.0157749 0.0201859 0.0489005 -0.226864 -0.279227 0.933041 61 112 255
0.0548856 0.0209665 0.0398458 -0.00661412 0.274042 0.961695 186 72 57
0.0346455 0.0210181 0.0372858 0.231466 0.249745 0.94024 182 70 57
-0.0198846 0.083734 -0.0217343 -0.281557 0.0444363 0.958515 237 215 89
0.0756484 -0.0180222 -0.0722458 -0.0996274 -0.688391 0.718465 24 26 27
0.0326541 0.0127065 0.0394876 0.0458188 0.0668351 0.996711 173 67 56
-0.0434693 0.0466853 -0.00351333 0.0318307 -0.0806963 0.99623 170 167 83
0.00727331 0.0101042 0.0361549 -0.0794678 -0.664833 0.742753 67 119 255
-0.0165987 -0.045409 -0.0332982 -0.117804 -0.574835 0.809745 247 230 111
0.0452761 0.0107277 0.0398146 -0.0748747 -0.104839 0.991667 191 74 57
-0.0256153 0.0596136 -0.0137678 -0.0183561 0.64299 0.765655 219 195 88
-0.0160734 -0.0536106 -0.0359679 0.489389 -0.04199 0.871054 255 233 112
-0.0122518 0.0216653 0.0494014 0.166212 -0.458193 0.873174 66 98 244
-0.0392967 -0.0210883 -0.0125025 -0.095441 -0.158131 0.982795 164 170 84
0.0723944 0.0137298 0.0383669 0.139942 -0.044564 0.989156 147 55 47
0.0798124 0.0139664 0.0372356 0.28312 0.108221 0.952959 142 55 47
0.0240471 0.0207607 0.0420484 0.406152 -0.251359 0.878555 178 70 58
-0.0364915 0.0758773 -0.0226354 -0.435696 0.190111 0.879788 166 156 71
-0.030082 -0.0379294 -0.0281997 -0.123783 -0.773857 0.621146 204 191 82
-0.0208177 0.0510731 -0.00740331 0.435627 0.270378 0.85856 212 196 91
-0.0417735 -0.030307 -0.0143942 0.184869 -0.540672 0.820669 57 57 35
-0.02926 0.0651694 -0.0196211 0.0276231 0.231728 0.972388 151 136 71
-0.0200347 0.0108909 0.0408671 -0.136102 -0.369668 0.919142 61 113 255
-0.000693088 -0.00394417 0.0370715 0.316359 -0.308136 0.897201 63 113 241
0.0120723 -0.00195457 0.0320225 -0.366549 -0.0703958 0.927732 68 104 212
-0.0416899 -0.0579633 -0.0386352 -0.616425 -0.070667 0.784236 146 141 67
-0.0395617 0.086557 -0.026737 -0.0499332 0.343037 0.937994 144 140 67
-0.00855699 -0.0731546 -0.0400635 0.227982 -0.132713 0.964578 223 205 87
0.0724654 0.00655233 0.0380705 -0.0669905 -0.269044 0.960795 186 70 55
0.00271861 -0.0120262 0.0275612 -0.226724 -0.62714 0.745179 64 42 33
-0.0142408 -0.0817377 -0.0471467 -0.227488 -0.698939 0.678036 246 224 91
0.0102295 -0.0306318 -0.0198418 0.731032 -0.011944 0.682238 45 46 38
-0.0181719 -0.0624151 -0.0339096 -0.0262541 0.153359 0.987822 240 217 108
0.0453389 0.0194407 0.0392275 -0.0330335 0.153608 0.98758 184 72 54
-0.0326284 -0.0393577 -0.0306978 -0.349852 -0.781428 0.516696 186 176 79
-0.0105593 -0.0707809 -0.0401306 0.209468 0.144991 0.967006 207 196 83
-0.00782479 -0.0446333 -0.0342091 0.414665 -0.652398 0.634374 205 195 91
0.0706574 -0.0145732 -0.0688667 0.00911047 -0.867554 0.49726 32 34 32
0.0794754 0.00996866 0.0375192 0.275243 -0.0501054 0.960068 200 73 53
0.0179054 0.000706726 0.0351206 -0.432944 -0.0572951 0.899598 176 71 56
-0.000943389 0.0695253 -0.0295863 0.764845 -0.119701 0.632996 215 193 84
-0.00647589 -0.0423307 -0.0280897 -0.0374137 -0.887428 0.459425 194 181 85
0.0369646 0.000746626 0.0381497 -0.015113 -0.10478 0.994381 187 71 50
0.0687797 0.0106915 0.0387367 0.0573918 -0.218784 0.974084 194 73 56
0.0709484 0.00440843 0.036731 -0.0274939 -0.667229 0.744345 188 72 56
-0.0315206 -0.064013 -0.0341029 -0.142812 -0.0956583 0.985116 192 182 83
-0.029651 -0.0678218 -0.0339334 -0.134487 -0.249583 0.958969 83 86 53
0.0482183 -0.00917027 0.0363475 0.0571161 -0.218703 0.974118 169 73 51
-0.0275543 -0.0298485 -0.0163958 -0.0725622 -0.397948 0.914534 152 159 74
0.00584991 0.0236273 0.0476758 -0.459913 -0.388242 0.798591 159 80 99
-0.0299332 0.00284961 0.0371757 0.0446837 -0.151903 0.987385 58 109 255
0.0175807 0.0105067 0.0383861 -0.350997 -0.667343 0.656852 176 70 57
-0.0218974 -0.0261649 -0.0129618 -0.541797 -0.366221 0.75653 129 122 64
0.000436611 -0.0690841 -0.0435309 0.790761 -0.378843 0.480806 86 76 47
0.0234483 -0.00595127 0.0357045 -0.27194 -0.202791 0.940704 179 74 59
-0.0537609 0.00144038 -0.0190513 0.510351 -0.200971 0.836154 73 51 40
-0.0509612 0.0523617 -0.0112532 -0.367953 0.445651 0.816092 129 125 74
-0.000489689 0.0633953 -0.0256544 0.557782 0.592951 0.580766 159 135 66
-0.00347839 -0.0110159 -0.00403669 -0.216875 -0.141039 0.965957 33 31 26
-0.044178 -0.0597088 -0.0397904 -0.534513 0.179447 0.82589 125 124 62
-0.0374237 0.0625768 -0.0199469 -0.178491 0.408296 0.895229 151 137 72
-0.0474447 0.0335924 0.00303756 0.237881 0.159078 0.958179 163 163 81
-0.00204539 -0.037452 -0.0223619 0.0413106 -0.426704 0.903447 159 150 76
0.0209261 -0.0156835 -0.0186961 0.169804 -0.0547041 0.983958 196 180 85
0.0100866 0.00614949 0.0323604 -0.05316 -0.686545 0.725141 68 109 255
0.0579843 0.00247991 0.0362883 0.182857 -0.39092 0.902078 182 71 51
-0.0288697 0.0466008 -0.0058803 0.00669755 -0.284214 0.958738 179 171 88
-0.0444989 0.00269487 0.00455394 -0.604961 0.114148 0.78803 64 43 53
0.00517231 0.00981791 0.035487 0.225561 -0.421548 0.878305 68 119 255
-0.0189181 -0.0391405 -0.0236994 -0.506783 -0.81989 0.266366 217 197 91
0.0131371 -0.0114591 0.0294379 0.150383 -0.785071 0.600873 76 44 33
-0.0307624 -0.0278786 -0.0141873 0.23425 -0.0955359 0.967471 154 153 74
-0.054165 0.0467337 -0.00986665 -0.0633353 0.106371 0.992307 87 91 58
-0.0257246 -0.0408907 -0.0336373 -0.0124799 -0.365274 0.930816 217 196 85
-0.0474382 0.00506489 0.00157885 -0.553108 -0.373421 0.744734 129 54 49
-0.00508919 -0.0540024 -0.0355316 0.010681 -0.0139827 0.999845 202 185 88
-0.0471215 -0.0142978 -0.00480769 -0.40564 -0.702241 0.585076 133 120 59
-0.0487083 -0.0347706 -0.0280059 -0.440903 -0.759966 0.477552 47 47 32
-0.0430173 -0.0422511 -0.0368657 -0.547582 -0.51881 0.656499 123 118 61
-0.0328322 -0.021033 -0.0123674 -0.0767927 -0.610396 0.788365 152 143 69
0.00848711 -0.00338257 0.0310956 0.162573 -0.177022 0.970687 67 115 228
-0.0373388 -0.012579 -0.0010965 -0.092209 -0.924537 0.369768 36 35 29
-0.0134537 -0.00910957 0.0360416 0.0487141 -0.546847 0.835814 55 99 203
0.0341994 -0.0102732 -0.0457829 0.43163 -0.830762 0.35147 44 44 34
-0.0112016 -0.0700668 -0.0396865 0.40067 0.0185774 0.916034 211 190 79
0.0177271 0.011529 0.0394768 -0.128294 -0.440335 0.88862 177 71 59
0.00539881 0.00537503 0.034597 0.62622 -0.100911 0.773088 65 116 255
-0.0429619 -0.0379334 -0.0330434 -0.45782 -0.690821 0.559613 120 115 60
-0.0260875 -0.0688615 -0.0340275 -0.123193 -0.102015 0.987125 110 95 47
-0.0307008 -0.0634321 -0.033722 -0.0785586 -0.101022 0.991778 197 187 84
-0.0254458 -0.0617035 -0.0340795 0.124811 -0.00288893 0.992176 222 203 88
-0.0233458 -0.0101104 0.03301 -0.1003 -0.903837 0.415955 65 66 90
-0.0254784 0.00621327 0.0379212 -0.209082 -0.0827691 0.974389 58 108 255
-0.0105253 0.0199379 0.0479127 0.19954 -0.419434 0.885584 61 114 255
0.0321007 0.0222596 0.0384847 0.341792 0.168251 0.924592 176 70 56
-0.00564129 -0.0636441 -0.0422238 0.698865 0.147914 0.699792 172 161 79
-0.0341784 -0.0512211 -0.0357535 0.0483566 0.110315 0.99272 193 181 79
-0.0209985 -0.040632 -0.0297895 -0.402113 -0.769249 0.496549 208 192 88
-0.00608409 0.0247741 0.047766 0.253309 -0.120548 0.959845 151 79 72
0.00824911 0.0257767 0.0508405 -0.654617 -0.0944719 0.750034 167 172 87
0.0198643 0.0249426 0.0450331 0.557673 -0.361304 0.747302 116 85 62
-0.0256898 -0.0645976 -0.0338742 0.082403 -0.0154279 0.99648 197 187 86
-0.0170208 -0.0574157 -0.0342978 -0.0629026 0.132431 0.989194 247 220 113
0.00411081 -0.0209315 -0.016256 0.37556 -0.373006 0.848423 127 136 73
-0.00291699 0.0794788 -0.0292751 0.592198 -0.0529447 0.804052 224 207 88
-0.0425872 -0.0680645 -0.0383781 -0.158672 -0.175563 0.971597 52 57 36
0.0392188 -0.0114711 0.0357418 0.0246494 -0.172234 0.984748 65 41 30
-0.0253016 -0.037864 -0.0234916 -0.0798713 -0.99043 0.112555 212 196 84
-0.00201529 -0.00392557 0.0375226 0.247787 -0.395792 0.88428 63 112 244
-0.0282676 -0.0398247 -0.0304145 0.190842 -0.895059 0.403049 206 191 83
-0.0495514 0.00615604 0.000756449 -0.440359 -0.330952 0.834599 144 61 48
0.0525737 -0.00560387 0.0362988 0.247237 -0.130302 0.960154 183 80 63
-0.0152313 0.0936133 -0.0278861 -0.0741463 0.442019 0.893936 193 180 85
-0.00951809 0.0577579 -0.0152481 0.145935 0.273302 0.950794 208 191 88
-0.0135793 0.0592733 -0.0142982 0.324688 0.577692 0.748899 239 216 93
-0.0214929 -0.00850317 0.0367637 -0.0892795 -0.492068 0.865967 62 109 254
0.0760234 -0.0130086 -0.0682561 0.42063 -0.809609 0.409395 57 58 44
-0.038003 -0.0141951 -0.00609333 -0.00265214 -0.90628 0.42267 97 96 50
0.0695655 0.020012 0.0380756 0.244159 0.120796 0.962182 186 75 59
-0.0478867 0.0372403 0.00239309 0.43812 0.552753 0.708883 180 165 80
-0.00911899 -0.0491102 -0.0365894 0.066327 -0.304991 0.950043 226 204 90
-0.0116087 0.0940144 -0.0280795 -0.111507 0.562295 0.819384 193 184 89
-0.0174619 0.0795207 -0.0224391 -0.126003 -0.0172221 0.99188 244 220 92
-0.0150041 -0.0598561 -0.0337703 0.1251 -0.00288092 0.99214 239 210 102
0.00611121 0.00609013 0.034123 0.590732 -0.216438 0.777297 64 116 255
-0.0220751 -0.0273914 -0.0137443 -0.543771 -0.238261 0.804702 161 156 74
-0.015314 -0.0528651 -0.0365103 0.470392 -0.134948 0.872078 253 228 106
-0.0108979 0.0810895 -0.022846 0.382838 -0.314631 0.868586 252 222 92
-0.0298687 -0.0107377 0.0297718 -0.626365 -0.569488 0.532306 120 58 56
-0.023171 -0.0305903 -0.0147928 -0.146466 -0.317736 0.936799 173 174 81
-0.0203127 0.0029663 0.0382927 -0.106927 0.0935537 0.989856 59 112 255
-0.0492391 0.0128938 0.00408789 -0.0942007 -0.0776164 0.992523 140 60 48
0.00961801 -0.0225546 -0.0177156 -0.118899 -0.43556 0.892273 199 194 94
-0.0252609 0.00166886 0.0374323 -0.244624 -0.0415561 0.968727 60 112 255
0.0619303 0.0170034 0.0397877 0.0941562 -0.0757739 0.99267 186 71 54
-0.0430713 -0.0367098 -0.028135 -0.291182 -0.769897 0.567866 102 102 58
-0.0358124 -0.0161725 -0.0108161 0.0176657 -0.850037 0.526427 132 140 79
0.0490038 -0.0146856 -0.0621159 0.101336 -0.834298 0.541921 85 86 52
0.0852054 0.00486855 0.0321404 0.646439 -0.383284 0.659705 192 73 58
-0.00502729 -0.082436 -0.053188 0.198999 -0.959901 0.197459 194 185 83
-0.0365463 -0.0752575 -0.0377119 -0.326424 -0.0730692 0.942395 143 141 66
0.010282 0.0118153 0.0386338 0.0767832 -0.626052 0.775992 67 112 255
-0.0310945 -0.00148657 0.0363412 0.2817 -0.0545241 0.957952 58 107 253
-0.0261532 -0.0450487 -0.0342508 0.104307 -0.110736 0.988361 210 180 82
-0.0161963 -0.0326253 -0.0149769 -0.226312 -0.787254 0.573598 98 111 62
-0.0444319 -0.0109084 0.00377883 -0.587732 -0.648461 0.483808 25 26 23
-0.0390703 0.0510087 -0.00570703 0.23266 0.188702 0.954076 140 132 72
-0.0279434 -0.0180421 -0.00888563 -0.125775 -0.514952 0.847942 130 129 68
-0.0406294 -0.0119722 0.000714148 -0.0169866 -0.957579 0.287671 24 26 24
0.0938704 -0.000468474 0.0209941 -0.176526 0.587519 0.789721 120 68 48
0.0704994 -0.0167184 -0.0725813 -0.074213 -0.935693 0.344921 26 26 26
0.0372152 -0.0149987 -0.0553978 0.449905 -0.767429 0.456769 73 72 45
0.0273768 -0.00783598 0.0364339 -0.195082 -0.145938 0.969869 182 74 58
-0.0503525 0.0499387 -0.0102568 -0.133571 0.155163 0.978817 151 150 83
-0.0172355 0.0728084 -0.0211234 0.106654 0.234858 0.966161 244 220 94
0.000152111 -0.0200171 -0.0122113 0.688808 -0.0230296 0.724577 178 177 88
0.0668592 -0.00597647 -0.0531456 0.176381 -0.719994 0.671192 52 47 30
-0.0344041 -0.0401343 -0.0332891 -0.479016 -0.397127 0.782837 186 173 77
-0.00435399 0.0872165 -0.0288421 0.513786 -0.364921 0.776438 189 180 82
0.0216289 0.0234327 0.0427505 0.449179 0.659882 0.602324 170 69 54
-0.00300019 -0.0745917 -0.0434692 0.618358 -0.61784 0.485703 183 175 80
-0.012862 -0.00974327 0.0356634 0.0937205 -0.689949 0.717766 52 83 134
-0.0376145 0.0823846 -0.0252214 -0.0670627 0.539868 0.839074 153 151 70
-0.0255086 -0.0397166 -0.0323615 -0.177846 -0.728545 0.661508 213 195 86
-0.0119308 0.077749 -0.0230119 0.404371 -0.0852499 0.910613 252 224 94
-0.0276064 0.00592368 0.0372548 -0.275537 -0.13415 0.951884 59 110 255
-0.0172646 -0.0603086 -0.0340926 -0.146661 0.00867552 0.989149 253 224 124
0.0129296 -0.0121395 0.0266994 0.152616 -0.951574 0.26686 36 29 26
-0.0219804 0.0190414 0.0481173 -0.0195653 -0.364262 0.931091 63 112 255
-0.037178 0.0767879 -0.0231043 -0.428963 0.145241 0.891569 160 152 71
-0.0433264 -0.0238386 -0.0143192 -0.0598079 -0.126849 0.990117 197 192 116
0.0436046 0.00705384 0.0393634 -0.0697004 -0.162118 0.984307 178 66 53
0.0268216 -0.0130422 -0.0204626 0.552541 -0.795812 0.247753 49 48 37
-0.0431131 -0.0721239 -0.0399328 -0.53246 -0.247998 0.80931 76 77 44
0.0119984 -0.0263961 -0.0206486 0.487814 -0.625911 0.6085 122 127 71
0.0412264 0.0184578 0.0394824 -0.0552406 0.175045 0.983009 184 70 55
-0.00316829 0.0625758 -0.0219598 0.487806 0.524309 0.697958 188 160 78
-0.0178509 -0.0806844 -0.0470514 -0.018603 -0.830879 0.556143 255 250 121
-0.00923169 0.0644546 -0.0191849 0.197177 0.585358 0.786433 185 163 79
-0.00360809 -0.00979437 0.0320815 -0.0234944 -0.923956 0.381777 94 59 66
0.0260758 0.021575 0.0407431 0.411534 -0.0133395 0.911297 175 69 55
0.0442296 0.0223284 0.0386978 -0.0953279 0.461637 0.881932 181 72 54
0.0811714 0.0217794 0.0347073 0.500071 0.225505 0.836108 178 86 64
-0.0182028 -0.0702034 -0.0347574 0.325239 -0.316108 0.891233 217 189 84
0.0536694 0.0225208 0.0394114 0.0542175 0.206637 0.976914 176 77 59
0.0537822 0.00818059 0.03882 0.138597 -0.235204 0.962014 187 71 57
